ply
            format ascii 1.0
            element vertex 5363
            property float x
            property float y
            property float z
            property uchar blue
            property uchar green
            property uchar red
            end_header
-372.587564 -95.503016 1588.540237 128 108 126
-371.099098 -67.240143 1583.756942 59 43 55
-371.099098 -67.240143 1583.756942 59 43 55
-369.625164 -64.566277 1582.463766 135 106 124
-365.763505 73.530828 1564.927347 57 45 62
-360.648538 252.206146 1545.420271 52 41 58
-362.452661 53.839011 1565.459190 77 58 74
-366.633712 -124.037206 1582.905916 82 59 70
-368.113787 331.979367 1516.494056 56 43 47
-358.428281 152.868215 1552.093766 123 102 118
-356.275513 278.568136 1537.533029 52 44 59
-362.496800 -31.863627 1570.959565 70 48 65
-364.646007 -172.926751 1585.672724 60 52 75
-364.946539 -131.236307 1578.394629 77 64 85
-353.050289 291.235102 1533.152779 52 41 51
-354.952139 176.655632 1545.653655 120 102 122
-359.959587 -75.749811 1572.671924 130 109 129
-353.990770 157.317509 1549.074305 127 108 119
-357.118265 -32.653832 1567.142718 77 57 69
-348.177687 122.745517 1545.427058 75 54 68
-353.569481 -193.165082 1579.408868 73 51 63
-353.569481 -193.165082 1579.408868 73 51 63
-346.829607 192.270811 1533.893558 62 47 62
-346.829607 192.270811 1533.893558 62 47 62
-352.850306 -194.670469 1575.576785 116 97 112
-344.919284 151.579115 1537.063940 54 44 55
-350.989760 -196.685659 1574.178114 48 32 42
-348.395107 -182.639057 1571.566096 122 104 125
-345.843105 -85.078005 1561.128588 78 54 65
-345.552864 -77.476646 1560.014132 72 56 67
-347.313767 324.963366 1502.027059 111 96 113
-341.711899 -73.172588 1560.025150 59 46 58
-341.711899 -73.172588 1560.025150 59 46 58
-338.252687 313.621778 1511.967153 59 47 49
-345.740756 -195.322086 1569.923382 125 103 129
-341.195590 1.489380 1546.760749 111 93 107
-335.977671 241.233721 1520.055423 101 82 88
-339.492673 97.673709 1533.879581 74 57 76
-340.508732 -102.693121 1558.300117 46 35 48
-338.696327 24.915980 1542.858985 121 101 117
-340.353748 -75.473410 1553.445382 116 100 126
-337.116587 3.078298 1546.714114 48 36 46
-338.047926 34.825625 1541.069598 66 54 69
-334.135434 312.450501 1508.802660 47 41 39
-337.908176 90.258955 1533.165965 49 43 59
-341.409162 -189.883298 1565.935670 131 113 124
-339.078731 -69.532101 1552.697877 131 106 119
-338.637898 -100.711039 1555.152420 129 109 128
-337.245555 -29.883813 1547.336261 129 108 129
-339.070857 -103.186756 1554.269908 63 45 62
-336.229595 -4.013472 1543.008263 123 105 120
-332.279934 147.977110 1523.753108 49 44 54
-334.611199 48.025511 1535.866713 60 47 65
-334.568327 -9.736525 1541.090384 75 53 65
-334.568327 -9.736525 1541.090384 75 53 65
-325.459834 189.425961 1517.553530 33 27 37
-325.459834 189.425961 1517.553530 33 27 37
-335.589106 325.232201 1485.596348 86 78 89
-331.053096 -73.348933 1543.356106 63 52 73
-327.567950 45.443379 1530.114716 71 57 75
-327.527533 316.311629 1493.156072 97 85 104
-324.204219 185.193123 1511.713284 100 88 111
-323.684584 65.393159 1526.249105 42 36 52
-323.841779 71.193532 1523.479345 113 95 110
-316.340188 296.100637 1494.924329 27 21 26
-321.110081 22.454237 1522.533178 133 109 124
-322.812688 -150.515183 1541.902907 127 112 135
-319.557030 79.372290 1514.370120 104 89 117
-319.737799 -2.113072 1522.299090 123 110 135
-317.877241 21.955471 1520.379274 72 59 78
-320.750220 -187.853582 1543.562024 69 53 74
-316.125334 91.802308 1512.307862 56 49 66
-310.456640 24.830160 1514.440248 77 59 78
-310.959695 22.547237 1513.589552 118 98 110
-308.044086 152.384980 1499.005258 113 92 102
-309.577294 -1.051653 1515.598430 134 122 136
-309.577294 -1.051653 1515.598430 134 122 136
-313.560339 -187.609626 1534.658874 134 115 134
-308.901461 30.329134 1511.403807 56 41 48
-310.534515 -142.396685 1530.702021 141 122 140
-369.323669 299.839172 1400.791021 114 96 136
-312.150338 -175.112921 1532.720208 63 55 73
-306.793020 20.996754 1512.743888 49 43 61
-309.638521 -111.166778 1522.520680 115 99 117
-366.602971 205.697453 1409.722420 111 96 139
-307.726953 -143.013052 1525.361369 135 116 131
-365.599354 303.117362 1396.735614 95 78 107
-307.295103 -109.604449 1520.270628 59 44 55
-305.996728 -191.290510 1531.109166 50 44 52
-370.125929 321.335568 1383.599967 73 65 95
-301.114196 -110.345091 1515.610146 68 50 59
-302.168154 -137.631347 1516.651249 74 61 79
-297.076581 86.161092 1493.141195 81 68 86
-297.076581 86.161092 1493.141195 81 68 86
-327.373169 121.045705 1447.122527 46 45 70
-358.617184 274.899711 1389.643864 35 29 46
-357.820738 256.026180 1392.913875 30 26 43
-357.820738 256.026180 1392.913875 30 26 43
-295.714138 -122.804892 1511.034134 72 62 75
-362.662432 221.587455 1387.398742 37 40 57
-355.014119 171.324089 1402.046191 112 95 103
-293.227087 -113.209485 1510.214197 123 107 117
-290.335794 -153.045200 1507.983309 120 103 130
-287.896496 -109.351912 1502.282565 87 70 89
-349.005614 298.774035 1376.039156 50 49 64
-285.581371 -156.236982 1505.743473 78 58 75
-284.407287 -176.448931 1504.462854 56 49 65
-282.581678 -162.009835 1504.045590 67 45 57
-282.581678 -162.009835 1504.045590 67 45 57
-315.236634 73.974007 1436.231182 90 71 116
-281.455217 -160.130247 1500.592420 132 113 131
-342.269307 295.491247 1371.843782 100 84 123
-342.269307 295.491247 1371.843782 100 84 123
-278.455315 -97.998311 1493.098650 130 106 117
-314.531245 107.150770 1424.265069 84 66 107
-310.479645 97.315507 1427.586624 92 78 134
-338.842507 161.462739 1385.733458 95 83 124
-339.170160 231.142202 1376.186116 61 55 94
-339.170160 231.142202 1376.186116 61 55 94
-274.238761 -180.818946 1494.380869 81 60 82
-342.076669 204.226005 1364.722092 51 46 71
-332.911619 222.230476 1367.876855 20 21 37
-266.569715 -50.144490 1473.485504 135 119 146
-302.683976 120.687803 1412.672293 122 103 150
-266.560291 -75.771295 1474.090156 56 44 67
-265.378592 -146.279568 1481.814395 65 51 77
-263.954025 -111.459592 1476.970305 67 52 69
-326.990345 167.159818 1374.244190 46 34 60
-330.314112 296.371549 1354.474963 49 43 65
-331.760997 298.579726 1349.302934 95 78 114
-261.153805 -197.479464 1483.752308 135 115 133
-261.200966 -200.870635 1483.789329 127 106 129
-260.045254 -108.190581 1471.801635 136 113 128
-351.071517 190.791241 1335.542453 89 82 132
-259.280513 -220.480514 1483.994953 88 66 85
-259.245421 -192.880901 1480.192248 139 122 148
-318.965694 266.286587 1351.598005 20 20 27
-318.347195 159.327649 1364.084007 111 94 141
-315.997809 179.727229 1360.217087 56 53 73
-251.294554 -198.366990 1472.400593 128 111 136
-251.294554 -198.366990 1472.400593 128 111 136
-248.376854 -112.546057 1463.234879 80 63 82
-314.135915 172.871840 1359.184954 101 86 136
-314.135915 172.871840 1359.184954 101 86 136
-246.504438 -43.461756 1453.748485 139 117 126
-246.504438 -43.461756 1453.748485 139 117 126
-246.548163 -197.843551 1467.569409 73 58 79
-245.862811 -179.191101 1460.514874 74 62 90
-240.733458 -149.884562 1457.903040 79 63 85
-240.100998 -114.396155 1452.723118 50 41 62
-238.579365 -81.256202 1448.362060 46 40 53
-275.014891 -27.007370 1402.571372 46 36 73
-275.014891 -27.007370 1402.571372 46 36 73
-259.591657 109.107368 1400.611261 28 22 52
-234.883154 -114.898637 1448.572454 51 44 60
-235.785469 -176.079484 1453.460120 89 71 86
-235.253055 -183.101651 1452.681681 137 117 139
-233.716502 -181.134452 1452.209799 99 73 92
-233.716502 -181.134452 1452.209799 99 73 92
-232.243793 -178.906166 1450.866668 143 119 134
-298.095895 177.593579 1342.767618 100 89 140
-258.228835 23.651634 1400.251837 44 36 85
-257.316470 5.901393 1399.307098 52 39 83
-257.667568 1.643510 1399.880605 59 43 84
-255.590404 -6.454029 1400.547789 52 44 91
-256.833490 -23.804897 1401.305473 46 36 73
-255.928491 -28.728409 1400.565841 43 34 69
-227.689915 -198.436694 1448.436342 71 52 73
-251.089167 -35.895970 1398.608698 34 28 70
-338.865483 186.562615 1283.318511 139 118 161
-401.869283 280.821419 1210.286531 54 49 80
-245.387732 -48.360529 1391.435871 66 59 109
-242.740847 -51.651431 1388.862252 66 61 109
-379.374868 -80.022747 1278.621922 70 63 101
-277.023564 159.006782 1323.201025 104 91 140
-248.441094 -62.755111 1375.228547 40 38 79
-333.691346 159.371380 1264.395088 101 87 142
-226.714989 -3.981210 1377.596506 37 30 56
-235.547887 59.745103 1361.592189 80 73 127
-98.113453 -51.690653 1517.046053 46 36 73
-241.756043 -127.897117 1371.476942 37 31 60
-231.739388 51.596216 1356.154273 89 78 130
-225.099706 -59.990786 1371.438084 74 65 114
-225.209263 -22.180496 1366.658081 87 74 128
-222.537589 -82.471687 1370.650188 48 34 70
-402.155153 275.785286 1167.958432 57 48 62
-214.375358 38.540548 1355.907296 52 44 96
-256.445155 173.504101 1302.174876 83 67 100
-437.555724 143.011798 1145.200519 65 49 87
-437.555724 143.011798 1145.200519 65 49 87
-211.393054 46.124909 1351.789580 54 45 95
-222.330836 -169.962635 1354.719326 97 78 127
-218.458343 -178.453022 1349.671043 24 18 36
-409.980916 280.426232 1135.502506 34 34 65
-410.037158 178.924796 1145.046408 48 42 88
-398.739235 247.846768 1146.159595 88 75 120
-193.431246 63.250744 1336.861242 33 27 56
-225.691920 145.154858 1295.828855 127 106 155
-409.590942 279.747549 1124.808633 31 32 55
-214.240549 126.877698 1299.931422 119 104 161
180.260768 241.806294 1604.442053 65 47 90
-412.942229 177.479314 1126.065713 48 45 91
-410.389443 277.993461 1114.744176 40 37 76
-409.579868 303.512067 1110.328918 46 40 62
-406.215993 191.743983 1122.157140 73 65 111
-195.849667 16.414903 1307.787873 32 26 56
-210.352842 -143.714480 1313.029526 31 29 65
-400.982229 267.652445 1116.496717 142 118 162
-403.200019 273.697881 1112.727505 147 122 168
-485.818364 7.604042 1077.713382 100 78 109
-217.900301 -170.422448 1307.057602 106 88 136
-192.230999 83.374163 1297.261052 92 80 138
-231.260557 195.748865 1252.575026 68 58 83
-215.991886 -175.551050 1302.134216 62 46 79
-189.920810 35.509293 1297.765843 36 28 56
-186.891506 12.516050 1296.574679 41 34 79
-207.759759 -167.199031 1299.696046 35 31 72
-185.138963 75.521672 1289.419427 113 101 155
-184.750881 93.259823 1287.496606 87 74 127
-184.750881 93.259823 1287.496606 87 74 127
-208.208585 -172.430569 1296.683216 95 80 120
-209.193256 -139.015562 1292.125918 113 98 152
-209.193256 -139.015562 1292.125918 113 98 152
-390.227828 223.624227 1113.791741 54 42 89
-206.972063 -170.820227 1295.423981 91 71 114
-180.661494 49.415756 1288.503113 50 40 68
-181.142436 34.311700 1289.642812 39 32 59
-179.807107 100.337335 1283.058656 39 31 64
-204.010678 -179.998328 1295.963199 109 93 141
-179.585627 80.992594 1284.863445 36 28 59
-205.503983 -176.645070 1293.001675 106 90 134
-201.592496 -169.175522 1294.179276 46 33 66
-396.067290 276.093846 1098.027777 47 38 70
-387.087254 235.807983 1109.030635 65 53 102
-195.017646 136.641225 1262.036790 52 45 82
-194.748848 136.482483 1262.427445 52 45 82
-185.984621 126.117980 1262.093927 73 60 113
-172.169278 37.039675 1281.176813 56 44 80
-180.419752 119.412776 1263.066081 45 40 89
-200.393879 167.070247 1242.846024 78 62 95
-200.393879 167.070247 1242.846024 78 62 95
-183.999613 122.174862 1259.448020 118 102 156
-199.121902 151.518357 1242.693892 66 50 86
-197.853226 168.527397 1241.398999 65 49 87
-171.405870 110.421903 1266.210797 51 43 90
-171.405870 110.421903 1266.210797 51 43 90
-173.698579 -93.353803 1283.847610 94 80 135
-191.043736 -184.721953 1279.023635 97 79 122
-191.043736 -184.721953 1279.023635 97 79 122
-169.371707 96.821519 1262.926668 78 69 122
-164.869582 -84.489487 1283.437612 23 17 50
-186.474931 -181.880415 1277.461042 30 25 48
-159.308960 -77.182193 1285.195720 17 16 39
-164.551214 77.076604 1260.935480 36 46 75
-166.857312 78.743788 1255.829298 71 87 112
-151.320647 -113.124072 1283.700772 101 85 136
-156.865948 67.919474 1259.750747 140 147 160
-157.585755 -17.493358 1268.187256 135 152 169
-158.127825 -6.994347 1266.224476 106 127 149
-157.494142 -100.352759 1276.597388 84 74 124
-369.322611 253.850546 1089.347705 67 50 84
-148.477501 -53.151155 1275.000324 20 20 42
-155.810569 -139.985906 1278.211091 97 82 135
-153.016531 -30.501391 1266.318425 131 142 163
-152.502460 -3.745139 1262.117358 111 144 163
-169.287094 -220.544241 1272.773346 62 45 84
-168.261298 -220.891692 1273.207851 62 45 84
-141.882369 -55.955089 1271.807528 81 86 113
-150.401245 -110.428774 1271.285771 49 37 73
-154.931621 47.992542 1249.892406 49 61 94
-150.187307 -140.898784 1273.158419 43 36 66
-149.876513 -38.706870 1262.254899 36 32 68
-146.673265 -22.095760 1257.878898 149 175 186
-160.161980 78.261185 1233.987826 82 93 106
-160.960247 72.441226 1233.411659 22 19 26
-163.528057 56.198866 1233.422971 124 140 154
-166.100352 66.312528 1227.896364 101 125 142
-156.825214 73.369907 1230.469640 52 67 79
-139.665113 -111.476038 1260.022226 90 78 126
-139.665113 -111.476038 1260.022226 90 78 126
-155.641421 73.093792 1227.341809 21 24 37
-126.817254 -79.540627 1262.505231 84 71 120
-356.876589 204.818723 1080.417626 43 35 77
-136.914795 -14.430496 1247.982296 171 194 204
-152.076703 1.653424 1235.660578 162 183 196
-159.195822 42.862475 1225.077614 181 196 203
-152.130260 75.838356 1225.947114 62 79 94
-152.130260 75.838356 1225.947114 62 79 94
-130.981773 23.995916 1244.518167 56 93 118
-134.839924 -112.792303 1255.012140 27 25 55
-165.543381 62.536559 1213.348828 146 153 159
-127.729907 22.025090 1241.990273 24 37 59
-44.227987 -262.751118 1325.984307 62 45 84
-151.426841 -221.621459 1251.941091 53 38 77
-161.878283 148.509848 1205.450567 59 45 77
-133.378788 -68.908556 1244.111759 96 112 130
-137.540265 83.883389 1224.443020 33 32 71
-350.341581 250.131616 1069.755603 122 103 145
-170.227052 180.200123 1190.416170 129 112 139
-348.566780 232.494882 1070.333608 66 49 79
-348.566780 232.494882 1070.333608 66 49 79
-349.168608 248.509019 1068.138187 53 39 80
-119.680739 -7.162694 1233.899196 176 199 211
-125.436316 -122.678729 1241.612678 95 83 138
-122.301458 -0.601745 1228.096730 113 119 139
-11.343599 -137.991829 1310.730934 90 78 126
-119.910935 -113.648646 1237.549366 40 32 64
-116.621502 -105.365833 1235.219729 33 30 61
-131.977075 -223.915666 1231.397763 66 49 84
-106.380475 93.060260 1200.835639 42 33 65
-105.072253 -90.183067 1220.475337 35 28 58
-121.112780 -179.322095 1218.334237 35 31 59
-330.934583 221.495275 1052.254828 67 50 90
-94.437027 -5.480582 1206.096924 109 90 136
-93.924467 -36.129937 1205.221599 35 29 68
-104.187140 112.750632 1180.692889 133 115 168
-90.740905 5.624748 1198.220841 92 82 133
-117.683300 -182.464060 1202.561822 51 38 71
-113.135089 -187.326841 1199.356320 66 43 97
-319.677761 217.495003 1041.099595 66 50 99
-319.577310 232.663709 1039.088563 55 38 89
-319.577310 232.663709 1039.088563 55 38 89
-318.396171 226.619300 1038.480988 61 48 99
-105.871286 -169.876050 1193.984527 116 97 141
-315.848268 246.648438 1033.953774 78 59 97
-78.320782 22.723342 1184.050350 38 29 63
-77.177102 88.202027 1177.473903 39 26 65
-76.279076 60.506971 1180.049912 76 58 98
-313.202047 214.828079 1034.892278 61 46 96
-313.202047 214.828079 1034.892278 61 46 96
-110.789136 175.682115 1148.380133 134 117 151
-80.995271 -35.952497 1186.032593 36 29 65
-99.416249 -189.716455 1187.923383 117 98 149
-136.393375 68.946448 1153.571473 37 31 62
-71.681171 4.087701 1178.454612 43 33 62
-70.406328 69.448482 1172.191686 37 31 62
-97.078282 -190.035695 1184.647193 52 41 82
-69.516347 25.922459 1175.920397 61 46 84
-68.335853 56.636572 1172.822978 73 54 91
-67.760843 90.934101 1169.317351 61 45 83
-62.412472 -66.959728 1182.535546 39 37 67
-56.607083 -67.810160 1184.195413 39 37 67
-97.690946 140.708215 1139.749481 69 52 89
-34.986216 43.292673 1172.763402 39 32 65
-33.017968 41.172063 1171.357407 93 84 134
-459.568699 36.441336 1013.763334 76 66 116
-291.398534 245.054600 1009.340971 81 59 95
-291.398535 245.054600 1009.340971 81 59 95
-289.793708 200.821549 1011.780773 59 44 77
-293.491424 257.820296 1003.910039 110 89 121
-293.491424 257.820296 1003.910039 110 89 121
-88.248831 -274.348549 1157.684480 36 33 69
-16.868045 -1.833476 1160.449902 64 44 86
-15.912210 86.683384 1151.625853 61 46 90
-39.726447 -192.711307 1166.485693 138 118 143
-46.075640 -221.122725 1166.150451 43 36 71
-25.674549 32.606972 1150.311893 83 74 125
-18.495515 14.486774 1154.121108 106 90 142
-13.713763 82.049763 1149.365481 63 48 90
-20.217876 -88.793394 1163.202164 104 86 129
-19.706193 -95.308338 1163.767539 103 85 125
-19.495222 -106.108589 1164.854559 91 78 119
-18.984929 -84.279471 1162.537690 86 73 118
-198.892148 338.493830 1032.673605 142 100 100
-14.080173 11.379201 1152.046428 62 52 98
-283.074053 198.105461 1005.225809 62 50 99
-283.074053 198.105461 1005.225809 62 50 99
-283.074053 198.105461 1005.225809 62 50 99
-69.434403 150.597926 1109.132998 114 97 143
-21.751908 -188.472525 1165.035349 42 38 83
-14.003485 -200.374781 1167.978072 148 125 148
-279.633470 215.338343 1000.656778 55 41 71
-279.409654 236.865851 997.793776 82 61 113
-64.159895 159.538266 1104.068480 47 40 68
-64.159895 159.538266 1104.068480 47 40 68
-6.877972 -10.090001 1147.296765 57 42 74
-278.904906 130.509400 1006.178182 119 102 152
-62.041567 152.642704 1102.049891 73 53 97
-12.826844 17.045901 1137.038264 111 93 149
-279.774878 256.508670 990.509371 102 81 112
-279.774878 256.508670 990.509371 102 81 112
-24.560471 -150.246234 1146.665876 34 30 65
-27.154663 -226.324510 1153.443180 145 123 144
-275.067986 202.034124 996.252976 69 52 104
-20.962572 -154.585743 1142.585040 46 34 63
-46.292445 -276.811742 1143.090091 32 32 44
-62.156501 177.556558 1089.078355 86 73 112
-271.393479 240.826299 988.739384 72 55 106
6.323780 -10.305694 1134.776046 92 81 129
6.910699 -10.370477 1134.649840 92 81 129
-49.803414 154.461705 1089.798864 83 66 102
12.248395 39.184775 1126.370688 60 47 96
17.853171 71.022988 1121.018486 42 33 69
16.910962 82.994171 1118.431807 59 45 88
-184.432943 -38.278357 1111.223696 47 38 87
-184.432943 -38.278357 1111.223696 47 38 87
-28.194330 -186.363872 1123.919588 34 30 71
56.038962 -281.740015 1166.280377 85 65 86
21.152316 18.723109 1120.577290 44 35 71
19.596599 -9.487103 1116.473946 88 76 127
62.947821 -302.944850 1158.901130 113 85 110
24.847451 5.792291 1109.115415 76 66 116
24.847451 5.792291 1109.115415 76 66 116
24.847451 5.792291 1109.115415 76 66 116
24.847451 5.792291 1109.115415 76 66 116
-253.718219 221.424436 972.809568 53 40 74
-253.241346 212.922483 973.533950 73 54 86
77.527365 -262.429371 1142.348942 82 67 95
77.527365 -262.429371 1142.348942 82 67 95
-243.310264 -84.719966 1001.607598 90 72 88
-240.757782 217.838333 959.076741 61 48 100
-239.866468 220.536325 959.125650 111 97 143
-240.513694 222.898312 958.397727 116 101 147
-13.121124 125.084222 1050.545974 68 59 82
-10.146304 148.584162 1049.328343 45 40 60
91.147651 -147.918622 1116.013471 146 126 140
92.588088 -117.010662 1112.415441 75 59 75
91.751318 -171.649059 1115.909358 100 78 107
91.751318 -171.649059 1115.909358 100 78 107
-7.290131 138.827483 1046.955824 103 89 140
-7.290131 138.827483 1046.955824 103 89 140
-237.085525 249.618099 949.873751 161 132 179
-6.599572 123.615168 1047.959776 59 48 81
95.147682 -160.761018 1112.392154 101 80 114
-5.371370 153.436261 1044.488819 50 40 71
96.506408 -150.567263 1111.722643 85 68 84
98.810370 -241.062729 1118.568691 95 76 94
24.223209 101.784684 1056.506892 54 48 106
38.875056 88.270228 1056.843501 130 111 157
39.594778 70.690942 1058.479538 110 94 143
43.297445 63.076376 1060.267357 84 67 95
104.866832 -226.949767 1109.059961 92 76 106
3.191516 122.911167 1038.695764 120 101 146
43.345843 67.564409 1057.195507 65 47 85
107.432580 -82.589091 1093.498329 97 80 111
7.157848 126.051470 1034.065221 38 33 54
8.191446 148.411316 1030.731366 80 65 99
8.191446 148.411316 1030.731366 80 65 99
33.416419 -36.941952 1050.687845 127 108 156
118.783783 -283.824930 1101.713641 80 67 91
54.336631 68.076415 1046.010745 119 102 146
123.130954 -156.906538 1085.947792 88 65 80
122.658218 -83.416769 1078.649296 92 72 104
33.538219 -26.383169 1040.146266 113 99 146
130.830933 -201.583319 1082.027779 134 117 145
136.207719 -75.643758 1064.429880 90 66 90
137.694040 -319.382297 1086.283095 101 77 99
137.517798 -80.831835 1062.044742 139 113 130
141.922928 -155.405738 1068.180919 139 117 127
143.431936 -203.206780 1072.039179 71 56 70
142.514779 -155.415926 1064.792844 91 66 83
145.356871 19.244172 1043.606471 65 49 76
148.587841 -86.135292 1052.776752 77 62 90
156.611137 -266.486212 1063.445134 138 117 136
157.274649 -166.037293 1052.984055 90 72 88
155.304499 -203.870004 1055.778282 139 116 136
157.405435 -333.050237 1068.211598 98 73 99
49.239018 155.925128 989.835859 89 78 118
157.303189 -169.507550 1050.729158 136 122 147
157.162492 -82.389801 1042.169594 150 123 137
157.465184 -270.128924 1059.395449 84 63 80
158.763255 -232.437204 1055.143856 98 73 98
162.548511 -328.627581 1064.228322 86 58 76
161.860764 -207.322186 1051.652728 91 72 99
161.860764 -207.322186 1051.652728 91 72 99
161.860764 -207.322186 1051.652728 91 72 99
164.307979 -249.429906 1054.121959 138 119 137
165.286398 -288.826501 1056.647663 95 76 99
161.043746 -47.555616 1032.229646 129 108 122
166.249721 59.892957 1020.023121 105 78 96
169.558165 -91.806308 1032.093435 80 63 76
167.979011 37.530030 1018.998638 100 76 96
170.023128 -246.421434 1045.823840 73 56 74
172.980886 -202.880036 1040.140331 153 132 152
169.708896 90.690703 1011.415197 50 40 53
171.376897 -255.198697 1042.239002 155 128 144
175.671375 -248.412797 1041.400671 85 71 90
174.208757 54.648501 1012.824427 137 122 144
177.799204 -308.232579 1044.031245 106 77 96
180.296328 -9.699597 1011.896410 92 74 95
186.546932 -248.557413 1029.964011 76 57 76
188.634398 -211.107050 1026.508243 138 118 134
179.922571 96.281132 994.119516 178 65 30
180.006778 96.242577 994.170845 178 65 30
184.856910 63.120828 998.238499 94 76 99
187.796376 -240.885212 1027.086320 97 72 84
184.104787 74.404076 996.281167 79 59 83
191.163516 -274.067791 1029.007752 85 66 89
189.702111 -251.713617 1025.483038 136 117 136
189.603646 -150.434217 1015.272298 99 73 90
190.770170 -243.950343 1023.673242 150 127 139
189.595535 -82.158413 1008.243239 90 68 90
191.432025 -144.451473 1013.965653 94 70 87
191.432025 -144.451473 1013.965653 94 70 87
196.695800 -291.771250 1022.466845 86 60 77
196.695800 -291.771250 1022.466845 86 60 77
196.597109 41.932138 988.732907 139 123 150
204.783993 -366.879066 1028.000639 151 121 133
203.299247 -271.028154 1016.642787 152 124 139
205.086110 -329.514051 1022.150384 142 118 134
196.673923 75.610340 982.460171 93 78 107
205.216780 -365.708580 1023.317730 100 70 88
203.163221 -11.016386 989.789324 64 51 75
204.105997 -19.193877 988.888055 90 74 106
197.245011 81.275875 977.905427 149 130 153
207.938721 -334.931885 1018.421211 74 51 63
204.257283 -7.225950 987.295169 125 106 128
207.048456 -286.455491 1012.219509 98 70 88
208.160095 -366.910398 1019.797136 148 122 137
204.763226 19.676271 983.144796 135 116 138
204.763226 19.676271 983.144796 135 116 138
205.666017 -64.940659 990.969534 89 68 91
205.666017 -64.940659 990.969534 89 68 91
207.218729 -296.101803 1011.749754 139 119 142
207.142520 -86.414577 992.379512 94 70 84
202.881537 34.741084 979.915255 143 125 146
210.781087 -371.440504 1017.369072 91 61 80
210.781087 -371.440504 1017.369072 91 61 80
206.564578 126.958195 970.909799 70 55 74
206.035630 124.122905 970.294770 120 107 128
205.375308 -6.808453 981.181398 122 103 119
211.570030 -334.983629 1011.114063 103 76 97
205.883933 142.204540 966.258804 66 48 72
209.582666 12.585570 977.655581 87 67 88
217.248793 -204.500916 996.039513 142 125 152
212.917810 90.296109 966.178386 143 123 141
214.632991 155.639366 956.935178 69 57 72
222.660751 -371.939737 1006.362510 93 67 88
221.044951 -200.156505 989.999357 84 68 94
216.415144 179.578094 954.251938 83 61 87
225.470024 -295.080252 994.446782 109 80 96
228.492288 -373.260884 1002.027754 97 70 88
224.478232 -205.846099 985.517075 141 117 134
216.521024 220.645329 944.518486 130 109 129
221.295098 174.209138 948.821453 133 117 141
220.188679 134.015537 951.907468 99 82 108
201.127194 259.460039 936.138194 96 75 88
201.127194 259.460039 936.138194 96 75 88
219.639699 215.934921 943.367292 101 78 98
224.869177 155.096543 949.410379 80 63 82
228.206174 -179.053105 978.892049 99 76 104
228.206174 -179.053105 978.892049 99 76 104
227.687168 82.611656 952.676726 129 112 135
230.381067 -175.303856 974.957016 93 72 97
227.678701 160.266636 943.520534 99 81 108
229.576534 153.866379 944.042282 76 59 79
229.639209 85.923679 950.025677 77 57 77
235.948881 -373.849709 992.444313 93 64 80
234.658727 -130.100769 966.367004 79 61 84
233.504076 84.651611 945.880187 69 57 77
238.986915 -56.892748 958.250682 55 42 62
236.024575 124.455336 941.084415 90 64 88
239.672597 -125.883145 961.676830 139 120 137
243.011457 -49.269715 954.954899 135 117 139
239.392962 -20.242426 950.555227 153 135 150
242.706666 -24.688654 948.536859 106 83 109
240.831055 109.699143 935.189649 94 76 106
244.456035 -98.606327 954.497963 75 54 79
240.969492 94.497020 935.779718 87 72 101
245.400954 -212.129917 963.338979 90 70 82
245.400954 -212.129917 963.338979 90 70 82
246.334521 34.666337 940.905476 153 134 152
245.254900 -31.333975 946.278496 90 71 92
241.211836 147.043055 927.668991 145 128 147
247.802123 32.646332 937.153437 86 63 89
254.059949 -371.919239 975.115871 103 73 98
254.940488 -298.072826 966.886023 81 59 76
246.328527 53.136921 933.649393 142 124 149
256.095256 -356.202760 970.932978 105 77 100
253.070583 -132.623691 948.372949 98 77 103
247.095455 26.735723 932.686278 145 124 141
256.726387 -375.675557 970.499646 108 81 97
249.657541 225.788552 914.896219 69 58 72
252.548757 121.968510 923.596242 96 77 102
255.306716 223.043390 909.523868 87 65 83
254.561583 227.689555 907.683958 142 122 135
61.952839 276.049813 863.526050 168 141 130
262.025018 178.045806 908.014192 69 55 73
265.518357 220.451372 901.015171 84 70 93
273.773812 -256.199402 939.130425 104 75 99
267.879643 119.598155 903.760380 67 54 75
267.879643 119.598155 903.760380 67 54 75
274.471998 219.939974 888.229029 65 48 69
276.161388 147.227949 892.634722 67 51 77
-62.635041 -144.549330 905.989374 232 189 175
255.443861 266.561770 874.141004 255 196 177
284.969334 118.174565 889.561033 77 57 80
289.657705 -136.147231 912.281259 229 193 177
288.368305 158.045233 876.640436 170 157 179
271.252486 263.964104 856.998510 255 199 183
-430.686139 166.775179 1621.142758 74 53 57
-429.339997 207.614489 1615.371552 92 70 78
-428.256735 252.659315 1610.389908 134 108 116
-428.256735 252.659315 1610.389908 134 108 116
-432.062710 -64.290247 1643.480415 81 60 72
-430.985250 -106.131559 1647.787584 126 105 117
-428.794844 -17.886380 1637.912153 124 103 116
-428.104490 13.008168 1633.492049 131 106 116
-421.524440 266.851156 1604.030403 116 99 110
-423.160333 113.562730 1621.617447 79 55 62
-427.466317 -44.453432 1636.960573 77 60 81
-424.955896 -16.275783 1633.239791 93 67 82
-418.528154 27.490241 1623.125409 74 59 72
-416.749440 163.169282 1604.481177 81 45 51
-415.219264 204.291882 1600.510787 58 47 51
-416.367641 166.584617 1604.058716 78 43 47
-418.090286 -53.476052 1628.754121 70 50 60
-412.372592 105.510439 1610.249404 70 55 66
-413.223220 171.596068 1600.214165 55 27 24
-413.275288 170.189877 1599.589601 52 31 23
-413.056977 15.066124 1619.151256 58 45 58
-414.820568 -66.755236 1626.024633 88 65 78
-414.820568 -66.755236 1626.024633 88 65 78
-411.625006 163.812846 1598.803684 45 27 20
-409.179190 322.683595 1579.502626 122 109 116
-410.943621 -20.837732 1620.049903 135 110 119
-408.428210 60.346360 1609.590672 70 55 65
-403.827740 296.314353 1581.608412 58 45 57
-402.854767 321.040551 1576.614947 66 52 56
-405.670225 23.055449 1612.212841 119 95 118
-405.505553 151.356630 1595.391042 249 179 162
-408.534638 -58.086676 1618.612317 122 96 115
-405.030239 130.560677 1597.497537 50 40 52
-402.997716 259.661448 1580.480938 42 33 37
-401.534002 322.371872 1572.686937 122 108 114
-404.141523 -19.833282 1611.768586 138 115 132
-401.030132 162.742767 1588.831502 52 31 24
-400.581507 139.755564 1591.598808 110 95 112
-399.086427 202.817568 1584.506451 55 43 46
-402.056509 -135.802768 1622.459318 59 44 55
-399.118360 142.992754 1587.257438 52 32 27
-407.482185 349.521633 1551.361056 42 32 37
-396.674328 255.791357 1574.087034 128 104 112
-396.674328 255.791357 1574.087034 128 104 112
-395.421991 172.132178 1582.249416 96 59 60
-394.432782 136.083817 1587.200344 110 91 104
-397.002160 -67.694267 1609.404084 122 96 114
-391.948516 258.142393 1571.813651 62 47 51
-392.198620 225.154021 1573.888779 75 59 67
-391.199752 195.156446 1577.561636 69 59 69
-396.258645 -101.278272 1610.355108 133 103 113
-394.596437 -94.001591 1611.149542 130 104 120
-391.214040 101.689717 1588.996745 113 95 108
-390.676074 162.240315 1581.581327 76 53 61
-395.369930 -58.688623 1603.881910 129 100 120
-386.643728 178.450634 1575.915113 122 101 114
-386.071186 159.401278 1578.314056 115 94 102
-386.847989 128.693570 1579.381918 54 43 55
-384.591945 240.771322 1564.076680 121 97 109
-384.591945 240.771322 1564.076680 121 97 109
-382.434536 317.737913 1552.136143 48 41 34
-378.873642 228.078099 1562.028801 120 96 106
-378.785244 8.200537 1585.111445 37 30 37
-379.348021 -33.135975 1589.362954 129 102 122
-378.940618 29.944943 1581.428200 134 109 122
-377.791532 55.199320 1578.660678 52 42 56
-377.791532 55.199320 1578.660678 52 42 56
-376.006969 68.874611 1575.690456 53 40 47
-375.139072 92.317575 1573.318450 54 47 52
-378.042607 -142.561485 1599.868810 65 57 74
-378.959421 -148.242267 1599.191540 119 98 119
-377.401940 -69.465884 1589.784764 118 96 117
-370.591479 158.430219 1562.616695 67 49 65
-375.024771 -143.622711 1596.367005 107 93 117
-374.263516 -27.129223 1582.191529 132 113 131
-371.643439 100.593437 1568.014821 50 42 52
-371.643439 100.593437 1568.014821 50 42 52
-373.843779 -99.334151 1590.707082 108 84 100
-370.551730 165.449280 1556.930840 114 94 109
-367.881023 154.431562 1559.227949 56 43 54
-379.739309 336.550491 1524.501165 38 33 31
-379.739309 336.550491 1524.501165 38 33 31
-370.209081 -67.607377 1583.986624 53 39 44
-366.464602 171.700089 1557.115727 46 42 57
-371.076614 -96.680232 1586.369841 124 97 115
-370.305526 -96.881523 1586.819132 124 97 115
-365.577683 222.991483 1549.891393 48 38 45
-369.045859 8.817968 1573.154515 48 42 50
-365.701966 126.389575 1558.058182 51 38 49
-364.607380 221.940336 1546.199116 55 43 55
-363.213007 143.766120 1554.879199 26 21 30
-366.229902 -138.920285 1585.542920 75 55 64
-366.123912 -128.569226 1583.931408 69 51 57
-363.498137 27.866045 1566.425081 131 112 126
-365.395541 -113.272892 1581.399364 75 55 63
-359.498373 -53.750837 1572.198642 64 47 60
-356.697785 -32.723818 1566.772832 64 45 56
-356.153988 83.562992 1552.540369 62 55 76
-355.530705 5.874157 1562.588602 40 32 41
-356.977498 -35.647762 1566.382372 122 104 128
-356.627409 -35.706879 1566.573264 122 104 128
-353.467916 215.678143 1536.844450 99 74 87
-355.111171 -70.118936 1569.704366 46 36 48
-355.573740 -73.021436 1568.207959 111 95 113
-352.507725 231.074748 1532.105641 97 83 106
-350.722311 214.884859 1534.276676 48 32 38
-350.933295 113.779741 1546.314828 50 35 44
-349.553888 -33.471157 1561.402192 59 42 58
-347.372164 193.280721 1532.125667 54 42 52
-348.334951 8.552463 1551.367010 122 101 122
-345.460225 97.275834 1540.264744 107 92 109
-343.992494 22.547568 1549.201824 59 48 64
-344.566057 -77.883599 1560.238740 57 45 57
-341.792310 54.410134 1543.217055 52 38 46
-336.383281 219.587485 1525.076717 31 28 34
-337.017069 37.945914 1541.302368 51 36 39
-345.147038 324.174458 1497.119925 59 45 49
-336.612467 -10.142158 1543.250681 125 107 129
-333.865136 171.895519 1520.930119 37 31 39
-333.909577 -33.457480 1544.626389 46 40 54
-328.279488 191.013902 1517.878981 32 27 33
-329.203842 172.365718 1518.290714 33 30 40
-328.566285 156.366575 1520.569839 33 26 32
-332.025060 -3.485500 1535.686227 107 90 113
-329.840107 -73.853135 1543.708226 52 44 64
-330.056992 -148.229215 1552.703622 65 52 75
-329.102129 143.891080 1517.272010 103 82 96
-329.127406 -56.467893 1540.195296 74 61 90
-326.155044 7.427925 1531.638005 118 97 120
-325.643603 -36.844523 1535.144018 52 41 58
-320.047946 169.124392 1507.907244 47 37 48
-320.647223 -37.246848 1529.967638 52 44 64
-320.307771 -174.620288 1545.288962 49 35 40
-319.803887 -174.788311 1545.537967 49 35 40
-319.759680 -109.547123 1536.897888 65 55 74
-319.786262 -190.612107 1545.254807 75 64 80
-318.189056 -149.457871 1540.707902 61 49 60
-317.452802 22.022709 1519.749740 58 47 61
-318.640348 -166.586249 1541.593830 69 52 66
-316.754854 21.396862 1519.272467 59 50 66
-316.889293 -171.970973 1539.337868 118 99 121
-316.452065 -172.119089 1539.550017 118 99 121
-313.063888 -38.333146 1522.542442 59 51 74
-310.469166 -0.574710 1513.892798 128 115 133
-310.978515 -176.160785 1533.188797 59 50 65
-305.038159 -67.723343 1517.804758 56 42 53
-304.209771 -192.713350 1532.141866 43 38 46
-303.123627 16.647079 1506.006026 106 87 108
-303.112534 -71.443339 1516.313489 127 107 127
-303.790888 -180.562842 1528.439556 70 54 66
-302.118813 7.649564 1505.493165 127 103 127
-301.128843 -74.789594 1512.816420 70 55 83
-298.780475 0.255451 1504.144115 53 46 64
-298.696895 -149.260337 1520.183295 114 102 124
-298.089774 8.074459 1500.703669 39 29 36
-297.177553 -192.950454 1524.480539 65 46 65
-297.138086 -172.745679 1521.788895 135 110 130
-295.614531 1.888240 1499.650903 127 108 118
-293.303700 -130.642729 1512.823774 68 51 66
-288.133439 -13.666426 1494.703732 66 43 58
-368.410194 206.790434 1404.850523 104 89 132
-287.772825 -197.437781 1513.681060 103 93 119
-285.374804 -38.036675 1495.412761 62 48 61
-340.688512 146.990759 1424.747656 120 102 156
-282.322807 -77.658498 1495.697220 54 41 56
-282.322807 -77.658498 1495.697220 54 41 56
-281.959067 -176.272265 1505.418380 65 55 66
-279.677235 -107.448498 1496.363553 72 49 59
-280.081614 -150.216643 1500.102904 120 105 125
-357.157293 164.339839 1404.259096 29 27 36
-359.584035 256.736937 1390.075089 31 28 38
-354.826774 172.015374 1400.621266 104 87 95
-357.608598 276.953496 1385.980022 45 41 54
-274.593779 -104.920897 1490.361294 68 47 60
-332.208869 142.281189 1416.823064 92 77 133
-274.105476 -181.941186 1497.057651 109 95 122
-350.023930 163.167181 1397.272987 36 31 42
-271.403712 -194.698274 1496.920980 48 38 57
-328.069106 24.551321 1426.529336 17 18 36
-269.216304 -196.862790 1493.111763 109 99 127
-266.323059 -39.998966 1474.046782 74 51 68
-314.328543 116.155965 1420.502843 94 78 112
-314.328543 116.155965 1420.502843 94 78 112
-265.304252 -50.446466 1473.775139 129 112 137
-264.643257 -144.375823 1484.769930 131 110 134
-264.880564 -76.224837 1474.441384 48 40 57
-263.141534 -147.498324 1482.818226 56 45 63
-343.673730 296.425241 1369.326537 96 79 116
-260.098166 -113.082748 1475.328970 57 44 60
-297.676442 62.308980 1425.183304 31 28 66
-257.163308 -198.802480 1482.767963 68 43 56
-334.015282 168.893987 1379.705897 27 25 37
-308.206272 131.408555 1399.742915 126 106 153
-249.102664 -203.570066 1473.867055 79 61 85
-249.285812 -199.627127 1473.248211 126 106 132
-327.230505 167.764651 1372.592817 45 34 52
-326.636819 164.669544 1373.249819 95 81 124
-326.902091 164.913142 1372.678748 98 83 125
-242.346707 -180.789417 1462.324778 67 55 77
-241.305097 -217.153438 1465.961943 89 67 96
-233.190885 -115.784632 1449.015198 50 43 57
-231.351256 -182.646180 1453.204494 87 63 82
-313.490796 173.703122 1358.136276 97 79 131
-259.968715 65.991857 1402.509409 36 29 51
-311.118544 162.754853 1357.800478 103 85 129
-307.109945 159.264471 1355.918603 42 42 57
-258.146206 75.836761 1394.101902 92 77 131
-260.302540 85.733588 1391.070474 23 20 59
-307.107994 182.187207 1350.196149 44 39 62
-256.508828 -18.681041 1401.033039 42 33 73
-245.764736 64.771848 1392.278168 31 24 46
-244.854704 49.949079 1392.797171 48 34 70
-233.709692 -130.734050 1418.663748 23 24 52
-294.465058 171.598666 1338.153969 101 86 134
-292.485931 186.706001 1335.815495 37 31 58
-291.736252 156.565793 1338.924443 45 36 61
-255.673569 -78.544297 1378.187109 93 78 131
-228.966928 -9.995433 1382.542276 28 23 51
-229.909078 40.247335 1374.493172 35 28 62
-224.820843 92.205572 1367.447526 29 23 47
-225.183684 -3.617679 1377.440667 37 29 54
-278.469119 181.643928 1321.682953 73 55 95
-276.991254 159.505100 1321.867150 97 85 132
-230.607785 51.652380 1355.609911 79 68 118
-228.735533 51.353211 1353.508644 44 35 82
-219.693162 -58.871946 1370.063984 31 25 57
-204.831436 -59.633675 1358.196744 32 25 47
-256.884347 173.911038 1300.722940 68 55 89
-227.904468 -189.210219 1355.984031 94 72 110
-225.818323 -183.105584 1355.147850 88 69 108
-225.818323 -183.105584 1355.147850 88 69 108
-627.069231 113.743161 1112.487421 55 42 71
-196.803743 -57.276086 1349.265911 21 20 39
-192.937047 33.666386 1339.615889 32 24 49
-202.240983 -177.474511 1345.818775 16 14 20
-235.736156 179.662847 1277.629893 53 42 84
-217.130456 -56.501154 1306.413177 92 75 109
-196.457566 49.673193 1304.480381 30 21 47
-193.379759 -18.089975 1307.421410 71 61 112
-190.309626 -10.020602 1306.219601 85 72 122
-211.830692 -135.642949 1308.876494 76 65 106
-215.452555 -201.313388 1313.453762 91 72 118
-192.161471 -23.877436 1303.150469 27 20 47
-446.682367 50.329564 1176.792065 32 25 54
-215.284732 -172.088272 1307.444297 108 88 132
-187.970750 -17.815325 1300.254314 30 28 55
-220.829245 174.344912 1263.047553 74 57 101
-187.755998 -23.936666 1297.535428 107 83 106
-203.513290 -220.386438 1306.341886 86 69 109
-179.020035 43.669329 1287.693272 88 76 129
-177.680463 72.603645 1284.821232 60 46 79
-175.960996 51.000573 1283.321681 93 81 130
-172.108532 81.341634 1277.206213 31 23 52
-210.603608 151.038998 1252.663032 58 46 82
-183.993644 123.242085 1264.891985 109 91 142
-199.536824 -206.592450 1293.342916 46 38 77
-163.999368 40.991985 1281.353513 87 74 126
-178.371029 116.592429 1266.622282 110 91 142
-170.110641 110.428687 1265.779757 38 35 79
-166.519537 77.383662 1270.000339 34 26 56
-166.519537 77.383662 1270.000339 34 26 56
-166.197099 77.268581 1270.051690 34 26 56
-214.792150 188.818539 1234.045190 66 58 82
-198.780033 167.283915 1242.425856 68 53 83
-361.778739 132.630598 1174.909653 118 98 141
-160.207949 -84.148298 1279.583591 80 70 112
-158.389994 -91.530433 1278.384399 22 21 50
-182.833453 -184.292145 1278.218088 29 27 48
-158.861466 -22.598843 1267.516239 137 158 170
-206.697069 191.710826 1223.418933 64 57 77
-206.697069 191.710826 1223.418933 64 57 77
-153.484962 -27.020936 1267.310614 137 151 165
-154.440181 0.043192 1263.991575 89 105 128
-165.332875 76.942280 1246.193463 34 37 54
-149.664230 -160.528154 1277.763524 50 36 66
-151.432002 -0.464161 1257.669961 88 114 132
-150.186347 -9.285933 1258.666395 120 147 163
-148.370633 -15.456708 1258.564992 137 164 175
-144.930656 -148.399589 1271.160249 87 72 123
116.768639 204.939723 1335.067971 55 41 76
116.768639 204.939723 1335.067971 55 41 76
-136.311705 -42.592759 1258.148093 38 33 59
-165.733781 63.231972 1233.843140 65 64 74
-137.598120 -133.152971 1261.146830 51 36 72
-165.965193 66.573018 1226.969208 106 132 142
-154.685160 77.758664 1229.618116 70 92 107
-128.959304 27.803822 1242.366716 42 56 83
-133.601643 -33.835102 1246.399074 162 181 191
-402.257187 267.946442 1114.572931 138 115 155
-151.316528 75.807207 1225.253904 56 70 83
-163.727742 51.945856 1220.823538 134 138 143
-163.442389 168.352444 1204.425693 83 61 101
-405.767082 264.653929 1105.887165 140 116 161
-175.844328 188.420807 1194.229877 59 54 69
-161.188142 68.973701 1211.201419 94 121 134
-391.543130 223.875062 1111.834194 47 36 83
-114.339132 -106.939858 1235.360683 29 25 55
-110.337428 -101.794039 1230.836464 77 67 109
-107.394698 -145.438822 1228.726672 43 35 58
-158.569352 182.530745 1175.900799 59 47 57
694.693217 -204.151969 1490.563808 64 54 92
-379.863483 267.909419 1088.924465 97 79 109
-113.416293 -182.021143 1220.191439 31 25 45
-113.416293 -182.021143 1220.191439 31 25 45
725.834350 -8.559973 1467.461745 86 74 131
-95.692393 -9.407464 1205.840977 104 86 130
-135.146606 161.770550 1175.102548 74 54 95
-85.969728 24.427848 1191.822908 32 25 54
-85.969728 24.427848 1191.822908 32 25 54
734.196456 105.425183 1430.911555 31 23 51
-114.581026 -190.549761 1204.611185 42 29 51
730.786543 -134.776089 1449.407564 30 28 55
728.268907 -145.486139 1444.253983 107 83 106
-104.964886 -173.353808 1200.545879 86 69 116
593.324369 51.588955 1396.372637 60 46 79
-358.842027 234.556524 1079.275631 69 55 76
-358.842027 234.556524 1079.275631 69 55 76
-359.790726 236.732447 1078.636132 63 45 77
-359.790726 236.732447 1078.636132 63 45 77
-357.865803 224.847445 1078.649034 36 29 54
-74.106430 69.503225 1175.419921 101 88 137
-73.642200 86.117395 1173.369750 97 86 137
-357.294359 253.363207 1074.353197 84 62 112
-351.469777 248.604381 1069.152755 79 64 110
-89.953197 -173.902135 1183.434655 108 91 131
-350.267113 248.915915 1066.611230 49 38 76
-85.869949 -163.741400 1179.155483 97 81 122
-354.161227 271.792542 1052.232524 51 39 64
-21.506008 25.227782 1160.552168 28 19 45
-17.207131 -33.001468 1164.924602 42 33 60
-17.207131 -33.001468 1164.924602 42 33 60
-17.244513 62.762097 1154.937934 39 31 60
-19.106578 15.844618 1157.024279 41 32 60
-19.106578 15.844616 1157.024279 41 32 60
-84.050052 154.174194 1124.740521 59 45 80
-14.320101 -25.124230 1160.000075 57 40 74
-10.670200 -46.155590 1160.728983 30 25 60
-7.458756 10.911207 1144.541828 73 55 109
-340.119734 271.217153 1039.101910 60 47 81
-20.193922 25.309904 1137.051365 68 53 105
-3.049817 15.934616 1139.046133 110 92 146
-70.076637 150.657437 1108.300264 107 92 135
-68.168819 154.585620 1107.202126 40 33 54
-19.018606 -120.796383 1142.875467 55 40 65
-320.293765 205.939118 1041.144951 56 42 75
-61.970632 134.559812 1099.427592 58 46 68
19.295185 76.824653 1116.018736 38 28 60
19.108825 57.821723 1114.012434 22 20 58
-311.024584 218.921068 1029.864187 53 41 85
30.660131 -120.894917 1126.645834 134 112 136
7.441030 -130.357206 1117.438319 113 88 102
7.441030 -130.357206 1117.438319 113 88 102
-45.826360 161.138770 1075.591023 122 101 150
-304.816387 259.374940 1013.147825 103 78 106
-66.729051 178.864220 1059.729400 55 39 42
-28.924211 132.079371 1068.824802 55 42 71
92.233339 -149.228504 1116.085348 139 120 133
92.934859 -173.333874 1116.039830 100 79 100
-23.559855 139.256362 1062.687432 112 93 142
-23.559855 139.256362 1062.687432 112 93 142
96.830979 -260.626500 1122.119546 90 72 96
96.830979 -260.626500 1122.119546 90 72 96
19.333199 97.689334 1059.346603 52 43 94
112.887929 -113.663670 1087.756933 132 108 126
27.168508 92.636805 1053.784473 129 112 158
18.850041 104.480510 1050.459629 138 117 171
39.954817 67.270981 1056.499808 62 44 80
-309.508029 289.835194 982.005947 145 123 115
122.793178 -241.919083 1093.125904 104 77 101
122.793178 -241.919083 1093.125904 104 77 101
-230.480493 324.067343 987.105570 137 98 93
-213.770753 324.767262 987.325281 255 226 211
6.529356 148.288446 1030.261463 77 60 94
54.650963 11.899869 1050.065903 43 31 61
135.064812 -201.329338 1079.037818 79 61 76
134.288264 -281.878503 1083.720780 152 125 139
142.996737 -126.051751 1061.342948 63 48 60
154.299505 -271.125266 1064.744966 71 58 74
156.282547 -203.494141 1057.178133 96 75 94
155.533544 -168.292895 1053.076048 88 70 86
155.878423 -170.660687 1050.677953 138 124 145
159.624160 -209.594311 1051.683803 89 69 95
159.923398 -161.192958 1046.046217 93 68 92
-245.909181 193.197340 964.311928 62 46 76
-244.568636 240.017762 959.404513 81 57 92
163.404042 50.339637 1017.908135 74 54 74
167.957785 -92.294099 1032.076349 76 59 73
168.178016 -247.188926 1045.756715 77 58 77
171.147844 -281.902655 1048.482490 97 76 91
170.901301 -125.581094 1032.444650 66 54 76
171.730157 -242.720832 1040.853060 136 112 130
179.523365 -249.073354 1036.779996 83 63 82
177.137761 -9.918598 1011.835232 88 68 89
180.678546 -291.239004 1038.262090 101 76 96
180.678545 -291.239005 1038.262090 101 76 96
182.318849 -274.686575 1036.621237 82 63 92
177.132983 60.877552 1002.560148 147 130 148
183.165207 -208.466698 1027.795459 95 64 81
185.406383 -207.020054 1027.447600 95 64 81
182.637339 -9.744495 1005.996374 88 71 96
187.677703 -233.866811 1025.674216 74 53 70
189.001387 -274.587630 1029.008544 84 62 87
188.793339 -162.428848 1017.271201 91 74 87
189.767286 -292.342350 1029.918907 74 51 65
187.834667 -9.572684 1000.546744 91 72 98
187.749834 89.662965 985.517107 53 41 59
195.425636 38.849787 987.625801 146 130 152
202.003549 -265.238696 1013.258521 91 69 80
204.861461 -367.403600 1023.303034 96 65 81
205.603961 -374.107664 1023.311013 137 114 131
207.046607 -336.191997 1018.605111 69 43 60
207.046607 -336.191997 1018.605112 69 43 60
201.574131 19.419671 983.279316 132 110 133
202.154350 -65.285085 991.056895 86 64 87
199.172862 34.522158 980.020249 141 122 139
207.999215 -380.481177 1021.324816 88 60 76
210.065655 -372.801400 1017.821927 88 63 77
210.838888 -129.312540 989.047688 70 49 73
210.297634 -297.135407 1005.716887 138 118 137
214.453014 -205.109180 996.059088 140 124 147
209.807339 47.069706 966.640974 145 125 143
218.439265 -208.862529 990.797852 77 59 74
220.850876 -372.877774 1006.695671 95 68 88
220.367090 -196.046093 987.272562 86 67 95
221.003670 -188.193742 986.470362 85 68 96
223.963651 -296.034585 994.830736 101 74 89
225.579755 -293.014250 992.949001 151 124 136
220.047588 159.726759 943.816563 97 80 106
236.577791 -41.291514 951.909581 144 125 142
234.803759 93.881512 936.139339 80 66 91
234.071198 150.487135 930.550830 71 58 80
237.815409 -17.700523 946.088539 78 61 76
255.136304 -254.007051 957.361779 78 53 69
255.998874 -3.731711 931.520182 110 90 109
248.263010 120.304372 918.722737 94 73 98
251.706499 24.352974 922.610394 149 130 147
-345.218268 300.970205 947.570443 158 131 118
-345.218269 300.970205 947.570443 158 131 118
260.384260 119.117925 904.495301 69 59 81
276.012141 -1.991337 908.270105 113 92 115
279.626484 15.222726 902.519495 114 91 113
281.517893 -20.102850 905.439702 116 94 118
278.883681 -125.447485 910.740274 220 182 170
263.399746 -54.398677 906.607210 244 201 185
281.754202 -118.065576 909.104988 199 161 149
288.913211 -102.592149 902.879227 202 163 153
284.583210 -78.160752 898.508077 203 165 153
-40.780606 75.574611 920.701563 226 186 170
-218.436857 -71.181172 897.004514 183 144 137
141.917116 427.380687 821.021574 158 131 118
141.917116 427.380687 821.021574 158 131 118
557.023252 -256.724333 847.657710 176 141 146
-228.636839 -34.257627 863.289778 224 180 167
553.196659 -238.195928 840.498547 117 119 137
553.196659 -238.195928 840.498547 117 119 137
21.620137 -75.044888 811.444161 162 125 116
-435.464374 -23.173248 1640.460594 123 102 119
-433.119291 207.472847 1614.081594 92 70 82
-432.975221 252.344218 1608.577671 139 115 120
-436.085098 -112.255798 1647.507301 127 108 121
-435.522101 -112.003085 1647.606715 127 108 121
-433.235785 -43.098023 1638.592210 94 69 89
-431.675076 -6.914261 1634.235615 86 67 84
-432.777522 -105.216518 1645.049750 60 38 43
-432.777522 -105.216518 1645.049750 60 38 43
-430.154486 230.248385 1607.345169 78 62 69
-430.250145 118.887520 1619.279217 71 48 55
-430.250145 118.887520 1619.279217 71 48 55
-427.534655 266.569332 1601.182602 120 101 115
-426.283001 133.804660 1617.055069 71 56 68
-426.645721 109.304221 1618.123489 120 99 117
-427.376852 158.753787 1612.176505 140 115 125
-425.055755 215.233975 1603.529308 70 55 62
-427.195304 -68.141124 1634.193059 84 65 74
-422.315511 156.405258 1608.799232 84 64 71
-421.638568 161.328169 1608.364049 67 52 55
-421.375646 185.317042 1601.691708 117 92 96
-420.813992 5.605120 1621.324214 91 73 89
-416.345136 105.169335 1608.682168 73 54 66
-418.559675 -40.689728 1623.325315 134 106 126
-419.022246 -93.577828 1628.463518 125 99 108
-418.451280 170.739234 1598.189332 56 31 25
-418.134990 -67.574345 1625.003891 92 67 81
-414.746369 44.939319 1613.250313 120 97 110
