ply
            format ascii 1.0
            element vertex 7082
            property float x
            property float y
            property float z
            property uchar blue
            property uchar green
            property uchar red
            end_header
-380.994912 -297.290980 1595.797854 133 114 131
-370.028375 -28.495863 1559.755355 72 51 66
-370.028375 -28.495864 1559.755355 72 51 66
-377.749665 -247.389335 1588.044859 60 43 57
-385.639694 -474.754535 1623.098315 81 61 84
-346.551547 152.616106 1409.003541 53 54 75
-375.580123 -265.117755 1589.020733 62 49 73
-339.602181 172.599218 1368.968213 38 34 39
-364.302781 -29.237278 1551.423850 83 57 75
-357.477517 82.899134 1517.605502 115 93 111
-364.714055 -61.807145 1558.538486 131 106 126
-337.606510 163.298571 1362.653211 93 79 121
-336.278887 166.531347 1364.129969 37 28 48
-325.239024 199.538403 1269.447302 75 62 100
-370.660909 -298.097855 1588.049549 126 107 132
-368.288911 -266.333962 1579.710644 65 57 87
-368.288911 -266.333961 1579.710644 65 57 87
-333.684731 163.005378 1362.526234 42 32 55
-362.380456 -188.555961 1564.767508 73 54 73
-362.380456 -188.555974 1564.767506 73 54 73
-340.669461 13.269117 1405.515776 118 102 150
-340.339775 19.709587 1404.552440 31 23 63
-358.805733 -96.956579 1555.140413 79 53 69
-371.041650 -473.786403 1602.310169 85 70 91
-290.899539 221.578198 992.475787 68 51 85
-327.809396 162.734187 1338.969661 55 49 66
-327.885295 154.989641 1347.005991 99 85 127
-289.404528 234.575578 992.127353 62 45 88
-362.632581 -362.313021 1583.129775 72 53 78
-358.244139 -267.655857 1571.700844 59 46 72
-345.737309 -26.682875 1524.969785 123 101 119
-357.961874 -334.266075 1576.165512 67 51 74
-346.667766 -68.093639 1538.917863 55 40 54
-342.507042 -29.956411 1528.440101 47 38 51
-355.636506 -389.095294 1579.004409 84 70 88
-355.687824 -390.831018 1585.302656 84 70 88
-283.870662 212.980976 989.325254 62 47 79
-283.870667 212.980976 989.325254 62 47 79
-336.346607 -32.333046 1525.957626 54 39 60
-337.723078 -69.268847 1530.220963 68 52 75
-317.343746 142.326046 1370.551089 113 97 150
-317.140836 135.513636 1380.834331 110 98 146
-340.703006 -256.685210 1548.673372 75 55 74
-321.087356 59.386343 1422.044805 22 21 47
-311.173807 156.763947 1337.592324 44 37 52
-338.974833 -226.521455 1548.348159 75 58 79
-317.355501 112.487830 1399.474894 42 31 69
-342.881639 -363.288726 1560.578950 74 59 87
-319.388454 36.826195 1410.820002 19 19 43
-319.388454 36.826193 1410.820002 19 19 43
-343.225664 -470.874417 1573.868645 132 113 130
-339.261499 -388.892715 1563.418236 78 61 82
-307.156440 151.946671 1339.850241 107 87 132
-307.156438 151.946671 1339.850240 107 87 132
-336.267070 -305.590539 1556.581290 60 51 77
-336.267070 -305.590528 1556.581292 60 51 77
-340.398135 -473.258137 1566.026589 81 71 83
-303.708533 170.163420 1328.125334 99 83 130
-303.707203 170.163505 1328.125279 99 83 130
-303.706694 170.163537 1328.125257 99 83 130
-320.848350 -34.690587 1507.859774 77 62 89
-322.086427 -103.840057 1517.317420 63 49 67
-296.030160 200.456408 1293.320530 59 51 82
-327.794798 -328.672898 1544.833467 139 121 138
-326.624076 -388.596944 1545.976314 81 62 83
-295.743550 153.143920 1325.865400 105 87 134
-318.336393 -168.891763 1517.416694 65 55 72
-314.289918 -70.271853 1502.879773 66 53 75
-261.788104 257.764355 944.866832 52 47 79
-313.819312 -104.878623 1506.762101 58 41 54
-313.819312 -104.878628 1506.762100 58 41 54
-312.102275 -184.182730 1514.168867 54 44 56
-312.102275 -184.182729 1514.168868 54 44 56
-313.738688 -304.155090 1526.918485 71 60 80
-306.368384 -140.396943 1501.204061 59 40 61
-306.368384 -140.396943 1501.204061 59 40 61
-284.902832 150.824281 1304.118615 106 85 130
-313.163684 -368.258521 1534.283437 80 60 79
-305.782616 -170.191237 1507.695005 67 52 73
-301.849569 -71.481894 1491.225163 75 62 86
-283.178419 161.168796 1307.889457 105 85 132
-283.178418 161.168794 1307.889457 105 85 132
-305.077237 -184.927260 1506.685633 75 60 81
-306.145019 -226.354681 1509.015078 136 117 134
-313.588956 -448.453473 1544.419435 73 61 81
-307.965272 -304.457701 1523.261757 67 54 80
-306.695515 -339.058197 1522.429021 70 56 80
-252.263697 251.863201 938.414919 144 116 159
-250.632785 256.357544 933.036987 46 41 70
-253.279382 174.864351 954.216333 69 64 103
-253.279380 174.864351 954.216333 69 64 103
-273.990636 197.800861 1275.485615 64 56 79
-297.650958 -187.574625 1504.164992 59 46 60
-284.978444 83.755471 1406.839457 31 25 56
-275.747205 156.964835 1306.375047 52 37 75
-291.270291 -72.839994 1480.677228 51 39 57
-300.360236 -414.075798 1525.757719 79 60 87
-246.696204 247.835774 944.243318 142 120 169
-245.685134 249.358989 939.606290 89 68 107
-263.579052 181.026515 1285.980148 71 53 100
-270.021009 87.193649 1375.153450 31 27 69
-268.852650 67.488198 1392.468117 33 24 51
-280.867332 -310.054781 1495.924076 73 54 71
-283.078610 -398.642956 1502.440304 134 115 130
-264.670126 93.091077 1384.256415 21 20 52
-268.748709 -165.133619 1360.656532 99 86 142
-269.519160 -244.398462 1349.155440 37 35 71
-236.936755 249.525055 938.515900 105 84 129
-277.001960 -303.841002 1488.702019 80 58 83
-234.568632 247.935372 941.104031 155 129 175
-260.090290 51.682227 1387.026020 44 34 77
-258.564831 66.659802 1378.398314 39 29 52
-258.376656 65.872085 1381.308632 39 29 52
-259.552023 -67.287118 1358.930809 25 22 48
-260.936934 -233.112097 1334.981224 33 30 46
-269.183289 -312.645138 1482.327948 43 31 49
-254.922338 102.462337 1376.922742 37 28 68
-260.157061 -195.224187 1344.461566 121 106 134
-259.084683 -254.447663 1306.736119 56 41 85
-265.118219 -363.981960 1481.775635 87 62 76
-265.118219 -363.981961 1481.775635 87 62 76
-242.192040 193.974141 1239.513101 64 53 79
-242.192040 193.974142 1239.513101 64 53 79
-263.910188 -374.906876 1481.869377 73 60 82
-229.664021 172.150899 943.510123 93 78 129
-241.015168 168.154865 1266.160741 53 39 81
-226.664601 228.831094 942.175905 106 81 115
-256.965491 -236.200323 1461.546510 70 57 79
-248.394707 -123.630021 1360.563893 25 23 45
-248.394707 -123.630021 1360.563893 25 23 45
-239.578443 140.445203 1288.957405 74 61 105
-239.578441 140.445202 1288.957405 74 61 105
-259.811875 -450.753945 1479.788769 69 56 78
-245.359597 18.457061 1375.714540 30 22 52
-255.021362 -316.067614 1467.779547 66 47 68
-233.164757 151.188457 1254.314986 55 37 74
-239.551557 -21.862991 1353.880288 24 24 54
-219.825367 249.664650 939.375473 110 86 128
-249.386599 -409.312827 1454.448552 140 112 125
-236.460949 37.029576 1359.624179 54 43 93
-241.318850 -234.654359 1321.990786 24 21 36
-240.569041 -194.402176 1341.867596 35 29 60
-236.646773 -1.748864 1365.115335 41 32 58
-245.286047 -338.778538 1458.308392 72 46 60
-234.826583 -19.318753 1351.409470 80 68 120
-237.890881 -204.188128 1355.130492 104 89 116
-213.995738 249.187382 937.403528 106 87 126
-240.708067 -401.804943 1461.402722 87 60 76
-228.355154 -88.659682 1357.577446 38 28 58
-236.958086 -421.716928 1460.808564 81 60 85
-224.660904 16.335951 1354.439100 41 30 56
-228.335218 -239.579182 1288.502514 22 23 44
-217.258855 188.170713 1216.114610 54 49 64
-210.216732 220.403897 943.449904 71 52 91
-210.216732 220.403897 943.449904 71 52 91
-232.532225 -379.569466 1449.603510 73 56 70
-232.532225 -379.569466 1449.603510 73 56 70
-224.356116 -193.833283 1301.838250 81 70 116
-229.557104 -351.777180 1446.743811 60 47 63
-230.884669 -422.500024 1456.513849 90 61 84
-231.053453 -451.828975 1457.223862 78 56 75
-231.053453 -451.828976 1457.223862 78 56 75
-221.730518 -170.355435 1296.367445 34 21 45
-229.083961 -426.221957 1452.396528 142 116 139
-222.390296 -271.173841 1273.319766 78 67 123
-226.931086 -422.346510 1449.132910 98 70 93
-226.931086 -422.346510 1449.132909 98 70 93
-218.719857 -154.681178 1290.125407 93 77 124
-216.476464 -151.491030 1293.249699 41 33 70
-216.476464 -151.491030 1293.249699 41 33 70
-216.327544 -169.273532 1283.528442 38 31 64
-215.737607 -164.715742 1278.673586 74 63 103
-206.392884 173.980832 1227.751447 59 46 92
-201.103568 229.466687 943.904393 73 53 88
-201.098857 215.336704 944.985618 70 53 104
-218.836987 -400.426505 1437.548954 139 120 135
-218.488852 -402.711109 1438.099708 89 60 85
-200.734799 208.274199 945.884509 75 58 109
-202.920665 167.604608 1224.635693 55 38 75
-208.992143 -155.301028 1278.796164 99 86 132
-210.685437 -264.468517 1277.083545 37 27 63
-209.097776 -241.117526 1267.064611 22 19 45
-206.922430 -152.776751 1282.366873 33 28 67
-208.831325 -312.345919 1333.655906 115 94 119
-208.465484 -322.873554 1300.546898 107 89 142
-199.283425 82.999136 1282.552218 34 21 67
-198.868692 101.341865 1280.332176 33 24 64
-209.802017 -378.839263 1427.829895 83 63 76
-209.802017 -378.839263 1427.829895 83 63 76
-203.134114 -147.770486 1274.967460 93 76 127
-205.424075 -315.826336 1302.608723 33 34 85
-200.324916 -176.192211 1268.633931 34 22 52
-200.324916 -176.192211 1268.633931 34 22 52
-199.811211 -160.280287 1277.751905 27 22 54
-203.208659 -382.716146 1417.164722 73 54 73
-203.208659 -382.716146 1417.164722 73 54 73
-201.101850 -380.288405 1419.399840 129 110 127
-190.860042 101.519002 1271.636244 35 24 56
-192.539077 -21.376978 1278.599154 29 25 54
-192.539077 -21.376978 1278.599154 29 25 54
-187.934781 234.513469 942.662685 63 46 83
-188.713710 188.976638 948.280263 70 52 91
-187.368502 187.173483 1184.496619 59 51 68
-187.050522 256.253206 929.694173 65 57 104
-190.935308 -25.893094 1276.874704 94 74 103
-192.837579 -124.465299 1275.990178 22 23 51
-195.920797 -326.531592 1294.620124 28 27 77
-187.085429 82.825425 1269.642955 82 69 123
-188.101297 17.377278 1276.022643 74 68 117
-187.703050 -22.563002 1277.366186 27 25 55
-187.703050 -22.563002 1277.366186 27 25 55
-185.328623 208.111442 945.270685 69 51 104
-184.293287 229.504409 944.249492 79 57 99
-183.819049 161.841557 1206.180382 58 41 84
-187.712936 -60.371158 1257.000276 26 25 51
-191.450576 -264.938147 1260.710367 102 84 137
-191.450576 -264.938146 1260.710367 102 84 137
-185.367698 -74.664133 1281.581849 73 64 121
-183.840673 -14.224685 1273.758704 34 26 57
-183.840673 -14.224685 1273.758704 34 26 57
-189.154851 -270.374718 1263.223573 37 30 57
-189.154851 -270.374727 1263.223571 37 30 57
-190.799660 -425.767039 1409.947870 75 62 86
-181.215473 249.026349 937.381790 104 83 122
-181.215437 249.026349 937.381783 104 83 122
-188.886138 -407.364218 1405.288598 50 33 47
-188.886138 -407.364218 1405.288598 50 33 47
-181.801345 -70.059248 1272.743607 80 71 127
-182.581629 -171.671354 1270.612118 24 22 51
-182.581629 -171.671354 1270.612118 24 22 51
-177.871819 -122.618598 1378.238953 31 29 59
-184.259229 -389.817012 1400.895934 78 52 65
-183.599334 -406.123762 1405.648247 138 117 126
-175.947714 51.606384 1214.220074 59 53 102
-184.378664 -170.138124 985.371450 50 38 74
-184.378664 -170.138124 985.371450 50 38 74
-177.911190 -145.857021 1279.496483 45 33 69
-175.532998 256.357040 929.450129 73 61 111
-179.446091 -307.956967 1229.102468 36 32 73
-174.155680 154.743189 968.900917 50 40 52
-169.135364 182.132056 1166.861855 52 43 53
-176.751997 -294.679863 1243.685713 24 23 49
-170.580232 -48.736960 1264.572898 19 20 48
-169.627632 63.656986 1198.554896 157 169 175
-175.876916 -297.253614 1232.544781 23 21 40
-170.387199 228.746110 943.759199 75 58 91
-169.553797 -94.613681 1264.808848 47 36 69
-174.193798 -338.330811 1264.788831 116 101 158
-172.778066 -245.615568 1231.340810 21 21 45
-165.995700 71.000188 1201.997646 32 41 61
-166.547022 -86.523373 1268.622449 22 24 54
-170.738021 -268.851502 1232.615666 52 44 84
-171.353816 -299.788471 1222.837576 75 69 122
-167.539383 225.189925 944.648523 125 104 153
-160.754842 -30.094645 1251.768203 103 114 142
-164.386209 -408.934649 1384.994939 138 114 124
-160.254808 -51.665863 1255.931830 18 16 38
-158.287783 183.508829 1155.114823 56 49 62
-158.949719 -2.503214 1225.182080 197 213 219
-162.240071 -412.301294 1381.698726 57 44 66
-157.484844 -32.430739 1250.190086 115 131 148
-158.584344 -101.710815 1255.425527 72 64 111
-157.051288 3.204366 1226.787621 157 174 187
-156.022204 41.163859 1219.476846 159 146 154
-160.483060 -215.539265 1239.046721 46 35 73
-160.483061 -215.539348 1239.046704 46 35 73
-161.629915 -272.856201 1236.342038 47 43 79
-161.573170 -272.948224 1236.686885 47 43 79
-159.905114 -211.061607 1240.172063 98 78 107
-154.679714 68.940998 1191.047089 22 23 37
-155.177913 -56.598997 1246.828113 87 97 121
-152.930660 86.751444 1211.822362 29 28 62
-152.947835 56.033583 1197.628037 204 219 222
-155.907135 -411.422420 1371.572002 69 53 77
-153.668531 -105.414896 1251.270748 24 23 49
-150.043956 168.308350 1169.704940 65 52 96
-153.016882 -426.295976 1371.940648 78 56 84
-153.016882 -426.295976 1371.940648 78 56 84
-149.647386 -15.176197 1235.125447 29 51 86
-149.361462 50.569228 1197.705983 166 178 188
-149.361462 50.569229 1197.705983 166 178 188
-150.749019 -112.278041 1247.142061 33 27 58
-154.685165 -277.760432 1228.819271 45 31 55
-151.255800 -152.331284 1239.080723 107 89 136
-151.255800 -152.331281 1239.080723 107 89 136
-147.762593 181.556757 1141.276452 49 43 54
-149.404313 -107.072782 1246.859574 78 68 111
-147.776663 74.155069 1189.571424 36 37 57
-153.109338 -290.531109 1218.827159 30 24 49
-146.358149 -139.357906 1246.736555 29 30 64
-143.460202 53.195583 1200.227856 106 116 133
-140.599397 28.162072 1228.567402 68 95 116
-140.784990 184.258562 1134.976936 50 40 52
-140.425947 48.650663 1201.534487 144 156 168
-140.409790 4.201624 1221.138855 139 149 159
-140.409790 4.201624 1221.138855 139 149 159
-139.573388 63.148926 1198.130477 85 92 107
-138.869683 -1.457495 1236.800844 9 24 43
-142.923592 -97.783198 1163.035279 73 68 113
-136.986718 23.055661 1233.781027 16 33 60
-136.819204 27.681355 1228.519826 82 106 128
-139.498539 -412.157341 1355.063657 64 52 72
-136.162559 29.747540 1229.335142 51 70 97
-137.046332 60.724092 1198.753133 87 90 105
-137.046332 60.724092 1198.753133 87 90 105
-142.743656 -274.364974 1217.491470 32 24 55
-136.495094 63.200083 1198.722581 148 162 174
-141.097168 -217.761769 1219.581078 50 38 74
-141.097168 -217.761780 1219.581076 50 38 74
-135.536119 79.013895 1189.310034 21 20 30
-135.440314 -38.390801 1234.320885 30 33 61
-139.976325 -173.449333 1197.326119 31 30 62
-139.976325 -173.449333 1197.326119 31 30 62
-135.056101 67.942802 1191.297436 76 74 96
-132.673668 26.600220 1227.856755 82 102 119
-132.407935 28.873375 1228.541949 60 78 101
-134.875438 -107.287953 1231.433450 18 19 47
-124.642718 -122.273694 1423.648476 24 23 49
-139.383876 -341.500974 1238.744757 113 94 149
-134.013508 -63.062225 1226.641668 18 16 35
-139.240168 -271.230295 1209.300885 91 83 136
-139.240167 -271.230291 1209.300886 91 83 136
-130.155303 30.318764 1231.355483 116 142 154
-131.782519 64.684853 1188.194793 142 158 170
-137.166063 -337.701320 1238.545956 30 24 71
-132.877293 -407.658728 1330.445630 43 26 40
-137.139415 -249.443473 1192.440480 27 24 46
-136.224523 -342.144563 1233.320302 63 52 108
-131.844889 -415.787862 1327.822673 145 146 156
-128.991299 -12.748677 1227.759687 156 185 199
-129.426557 62.210004 1188.684749 84 90 109
-130.641500 -104.087697 1226.641655 73 68 113
-128.463079 -6.116933 1221.431539 112 124 142
-130.601663 -417.718378 1324.129423 207 203 202
-129.960881 -404.842126 1325.708789 134 151 170
-130.133663 -414.752943 1324.305798 69 59 76
-126.303007 2.019622 1217.502189 119 142 158
-127.117089 155.462654 1147.376377 58 43 74
-125.004038 21.477922 1229.166198 52 72 89
-125.379995 72.937132 1181.500373 25 21 40
-126.673057 -100.858512 1220.762573 22 20 49
-122.952815 -388.112409 1332.719262 57 38 55
-121.779056 -395.155952 1312.200102 125 150 166
-118.999602 22.812420 1216.293854 15 15 31
-124.624705 -186.561779 1189.666885 87 71 124
-124.330857 -314.602675 1230.502767 45 35 81
-120.261815 -99.973426 1215.763282 30 22 52
-119.385705 139.297014 1139.543744 42 32 48
-118.529996 -85.107282 1211.202994 68 62 103
-123.339753 -275.426663 1186.000836 33 24 50
-123.339753 -275.426663 1186.000836 33 24 50
-129.154091 191.072831 959.919081 62 45 82
-120.580968 -171.294421 1183.818532 30 26 55
-104.794334 -257.809744 1416.081896 50 38 74
-104.794334 -257.809744 1416.081896 50 38 74
-119.370484 -180.604665 1186.502803 31 22 49
-117.174873 177.113057 1109.889314 67 57 80
-117.174795 177.113058 1109.889296 67 57 80
-114.336743 -413.884285 1305.948197 46 51 50
-117.433994 -328.189489 1227.272976 53 47 96
-113.433503 -408.589659 1302.007650 119 102 63
-116.347697 -155.933683 1189.075233 98 82 130
-117.527107 -183.268798 1179.213290 51 38 82
-118.672964 -251.867612 1175.482233 22 23 44
-112.687584 141.590722 1132.019812 113 91 139
-114.727754 -310.651195 1217.398347 52 38 80
-114.370276 -311.193789 1219.319456 52 38 80
-108.022526 0.843533 1189.286987 90 81 132
-111.382166 -305.226909 1216.323282 64 46 93
-111.382166 -305.226909 1216.323282 64 46 93
-107.005123 -409.040493 1295.726467 121 105 62
-106.793730 -23.761933 1194.137806 33 24 64
-105.310541 32.643317 1192.351497 74 60 108
-108.447146 -107.737393 1173.621103 33 32 66
-104.126145 -403.983450 1292.630411 122 109 71
-105.862648 137.686564 1127.917732 48 33 64
-108.578245 -183.250838 1174.068737 39 27 69
-108.095471 -173.578606 1172.795874 36 30 65
-107.359993 -181.894397 1166.081777 52 46 81
-105.853644 -308.349683 1209.907063 52 46 105
-105.853644 -308.349683 1209.907063 52 46 105
-100.374453 -413.543909 1291.640567 135 135 141
-103.500856 -162.949616 1178.091504 36 31 70
-98.492373 53.958468 1179.320604 52 40 70
-101.171966 -157.654162 1163.607528 88 74 128
-100.385972 -303.385440 1204.561078 109 93 147
-100.560408 -206.259736 1163.297891 81 68 114
-100.560375 -206.259018 1163.298028 81 68 114
-98.153955 -154.325217 1167.728876 34 27 64
-96.787784 -143.496617 1164.911209 103 91 143
-105.549214 224.230370 980.794249 57 42 80
-93.556969 162.568187 1112.395178 66 50 97
-93.293051 -126.206957 1171.955776 15 14 30
-93.293051 -126.206957 1171.955776 15 14 30
-88.934490 69.974573 1167.139893 28 18 60
-92.295800 -162.528659 1172.779287 26 22 57
-89.469499 -35.609598 1172.409219 94 78 112
-90.922340 -135.431830 1169.019229 25 20 52
-89.235573 -180.535829 1174.115105 31 19 47
-87.504695 -84.528183 1166.925713 87 74 128
-91.739249 -260.111147 1149.934092 66 58 105
-91.739249 -260.111147 1149.934092 66 58 105
-83.468172 4.833968 1167.817886 27 22 61
-84.612164 -174.239985 1174.032738 80 70 116
-84.556490 -210.945726 1178.169593 21 20 54
-86.260717 -305.546449 1179.027678 114 103 153
-74.398487 -393.441278 1287.752547 64 41 63
-81.008712 127.199590 1123.126702 130 108 156
-82.829810 -308.607995 1179.364117 119 102 153
-92.853361 272.456096 971.871597 80 65 86
-80.380106 153.901338 1096.486070 42 33 59
-71.332442 -392.322932 1280.044130 66 47 64
-78.762545 131.803452 1097.979037 48 41 56
-76.503724 159.838611 1092.336555 57 47 77
-73.592832 152.991019 1091.698267 48 35 67
-63.424719 -57.670606 1174.414189 16 20 45
-66.118268 -185.523993 1172.843715 19 16 25
-60.387808 135.876889 1078.130044 44 35 62
-51.822660 -78.499659 1176.048548 37 29 59
-47.606463 -403.012166 1256.604013 139 117 135
-46.767570 -394.257833 1257.620740 144 118 131
-49.776860 46.696001 1165.108747 31 24 59
-64.437360 210.437897 1023.364650 55 38 75
-48.249409 45.163793 1160.122790 51 40 73
-47.434535 42.299420 1161.161467 30 22 63
42.873686 233.891449 1811.717058 113 91 139
-56.985103 135.928261 1074.674605 102 85 136
-45.630917 -340.368570 1234.705159 110 87 109
-43.361677 -398.596499 1253.731724 130 111 130
-42.930108 -355.603393 1248.817208 90 68 92
-42.930108 -355.603393 1248.817208 90 68 92
-61.255387 257.914831 1020.065792 113 93 135
-46.416091 12.166431 1166.316854 38 27 60
-42.617649 -341.779726 1246.714155 68 41 67
-55.874932 140.158378 1076.241712 50 43 58
-41.902898 -348.695504 1247.437094 83 58 78
-49.351420 -224.088220 1166.975930 46 31 75
-48.637037 -175.702805 1144.441013 102 86 140
-56.540070 264.789588 1009.294060 70 58 88
-40.938298 -78.903196 1162.896742 33 26 53
-52.911847 257.541359 1022.035776 85 69 103
-30.399684 -337.577459 1230.010405 73 61 91
-29.816424 -375.838012 1237.346907 93 74 95
-29.816424 -375.838012 1237.346907 93 74 95
-42.353476 -186.505076 1115.068548 105 88 145
-35.817836 34.119753 1126.171235 101 90 140
-32.664323 -5.894499 1152.758324 35 27 57
-45.963364 261.147275 1019.935585 72 57 85
-34.608084 32.411362 1125.239560 58 44 92
-34.608084 32.411363 1125.239560 58 44 92
-30.755370 64.580893 1141.845383 43 33 63
-40.648405 -183.065458 1107.529450 102 91 141
-35.359222 -260.669612 1147.412015 81 70 108
-33.085648 25.015259 1125.134199 124 104 157
-33.152066 -204.485991 1149.868314 26 25 65
-32.784891 33.585016 1122.911684 104 94 141
-34.425649 -148.086810 1134.787299 33 28 55
-34.425649 -148.086800 1134.787300 33 28 55
-30.197151 -77.583793 1150.275515 34 29 61
-31.686771 36.357765 1123.566821 34 29 74
-37.919007 -180.998854 1108.676977 33 29 58
-22.700550 -398.947035 1232.904266 75 51 81
-27.408769 68.492584 1138.005974 40 29 67
-39.582412 258.546204 1033.813035 57 49 66
-40.922020 167.327060 1032.186048 60 53 90
-36.906703 154.949656 1051.134774 62 53 93
-23.676833 45.571811 1138.850777 28 32 81
-23.681312 -10.619404 1142.501436 45 41 90
-23.603189 -40.049795 1146.024667 33 32 72
-23.603189 -40.049795 1146.024667 33 32 72
-16.797909 -265.144740 1215.848312 24 20 49
-25.139045 -96.239400 1128.444278 27 22 49
-25.993668 -145.603112 1108.868495 27 26 60
-32.463100 264.642059 1015.055275 43 34 60
-17.177953 -7.394857 1137.967578 36 31 60
-16.339066 67.238749 1128.952361 32 24 64
-9.856322 -315.439091 1209.769293 84 69 100
-27.123537 118.187406 1045.769976 138 121 154
-28.941693 181.900933 1026.690207 62 60 90
-15.250959 18.014866 1127.323341 52 40 82
-22.293226 -185.689888 1107.197905 125 108 159
-14.070816 -32.167116 1137.012045 37 30 67
-17.731428 -82.275625 1120.336267 29 26 58
-13.961131 43.358414 1125.765265 22 17 44
-25.636634 240.451220 1026.670321 48 42 59
-11.373392 35.012639 1123.432095 26 20 45
-11.613756 25.968945 1123.496218 44 32 68
-23.489357 125.696994 1039.489792 58 51 72
-22.276435 234.126718 1023.617098 78 64 118
-20.699365 212.265349 1025.211229 43 42 51
-1.025899 -273.675353 1185.360296 143 121 145
0.105925 -254.143431 1183.940738 29 22 37
-19.175320 153.872617 1031.895762 47 36 69
-18.593615 224.288090 1021.058571 27 26 42
-10.857387 123.593536 1028.033383 108 90 137
13.245810 -239.541502 1178.838579 138 119 136
5.817248 78.135596 1103.713480 43 35 66
5.817248 78.135596 1103.713480 43 35 66
14.014312 -374.288535 1191.772994 83 63 92
-8.622039 255.385978 1001.372494 85 71 107
-4.917998 111.583962 1035.079146 69 58 90
16.470347 -341.027174 1187.595534 144 119 133
-6.805496 240.981874 1006.752410 52 43 69
-6.805496 240.981874 1006.752410 52 43 69
-6.622923 195.189613 1010.783449 42 31 63
11.304725 62.532054 1107.107389 37 33 68
18.970610 -267.004084 1174.404705 89 71 94
22.171225 -243.425974 1168.762084 84 69 101
0.109850 239.971432 1000.889962 49 40 80
0.956305 194.613633 1005.452724 41 32 65
25.455840 -322.574740 1174.278121 62 40 58
25.279761 -340.639220 1173.899365 100 76 88
1.984861 155.917699 1007.511621 107 91 144
7.508704 113.607998 1035.425767 58 56 86
27.512744 -340.960255 1174.201143 76 53 68
28.903453 -267.696347 1164.513152 133 113 132
29.731382 -263.925099 1164.443795 71 54 75
21.031873 72.275014 1090.463425 33 25 65
15.521574 -22.198832 1067.376603 106 88 135
6.079768 254.230319 988.636394 102 79 123
14.792580 99.809754 1042.439519 121 105 159
32.595105 -304.857523 1163.048287 89 66 94
36.542226 -308.465584 1163.008644 81 64 97
38.992980 -326.752841 1159.171163 78 70 101
38.992980 -326.752841 1159.171163 78 70 101
41.770674 -345.762353 1159.041764 88 71 98
44.163686 -283.038355 1150.712166 76 59 73
22.466460 -15.747314 1030.493739 83 70 124
23.680904 -20.782372 1028.713201 28 20 60
45.545314 -342.884117 1151.679404 139 123 141
46.890667 -250.213093 1146.145511 84 71 103
47.199884 -347.257108 1153.726467 95 77 106
46.360908 -168.716516 1134.767591 89 75 111
48.131371 -364.696124 1154.614479 101 75 93
48.131371 -364.696124 1154.614479 101 75 93
49.904062 -378.120716 1154.301341 93 68 96
43.341911 -79.219307 1099.685008 108 97 130
49.564829 -107.074169 1127.521686 81 66 94
36.950992 1.690644 1060.700528 23 23 37
23.267582 182.239340 981.889678 24 23 39
52.029387 -269.728185 1142.142452 80 65 96
51.606158 -70.272216 1119.459677 63 45 68
51.606158 -70.272216 1119.459677 63 45 68
53.003009 -305.986613 1142.367303 141 122 139
26.713533 138.626710 988.788229 42 32 62
55.746824 -305.712370 1138.679463 135 116 133
38.941979 18.658187 1041.684996 24 23 49
28.714180 119.418007 986.529678 104 87 131
58.547152 -252.012611 1130.786474 76 70 93
59.139615 -178.109780 1122.908452 146 125 134
43.099620 36.559286 1032.100417 114 95 144
63.130648 -282.862937 1129.422055 82 65 92
63.865101 -254.680959 1127.801413 61 52 78
63.865101 -254.680959 1127.801413 61 52 78
46.460760 27.036303 1027.823050 87 75 127
49.733626 11.066362 1035.780168 33 31 67
68.740318 -185.721560 1116.206757 71 62 89
69.787288 -313.771762 1126.304276 86 74 104
69.022572 -107.430838 1107.542979 76 62 90
69.022572 -107.430838 1107.542979 76 62 90
57.879520 -51.126108 1054.827087 141 122 155
39.312908 279.159489 950.678106 65 55 61
73.409906 -359.484833 1127.958931 58 37 52
62.014303 9.757943 1043.316196 24 29 62
76.769551 -142.217138 1101.635707 137 120 133
80.531298 -367.811345 1120.161561 86 67 94
81.290245 -139.541551 1099.201735 139 117 141
82.116858 -178.895982 1099.398594 78 61 94
83.451841 -196.863869 1101.800954 74 61 99
82.778670 8.237586 1062.102993 28 29 57
89.717612 -143.470536 1089.475066 147 125 137
92.969574 -348.748777 1107.736307 139 117 135
93.691389 -351.100210 1107.293259 75 58 85
93.322716 -175.341391 1088.118149 87 65 89
93.562749 -150.849101 1086.216184 143 120 134
83.402385 142.015821 1027.438132 47 37 73
86.113080 145.944016 1029.955547 56 41 79
94.013896 87.118911 1058.811355 67 50 77
98.426596 -224.474254 1086.724930 82 66 89
99.500081 -75.694648 1071.598625 156 134 153
99.054878 -42.287863 1067.708272 73 58 86
100.817256 -108.271814 1075.039034 133 111 129
101.856227 -151.155357 1077.494029 70 57 79
104.106793 -318.910544 1094.904998 137 116 131
103.063451 -256.672032 1086.405047 76 63 87
105.040761 -325.385867 1095.007222 78 65 87
101.430065 113.200657 1048.570433 65 56 89
105.149780 -147.440542 1073.661247 92 66 79
107.814916 -232.772787 1078.485259 82 63 88
107.814916 -232.772787 1078.485259 82 63 88
107.155535 -1.596535 1058.173334 49 33 44
99.236327 265.775246 1010.658458 70 57 65
110.122461 -4.228364 1052.428288 130 101 117
110.341474 39.760714 1049.789313 71 58 80
114.428290 -257.723911 1076.258789 74 57 84
117.303648 -355.048854 1083.230191 80 57 72
117.619907 -259.111261 1072.144636 67 58 79
106.816437 265.361805 1002.912522 66 52 56
119.686136 -286.590883 1073.854001 78 56 81
115.223155 236.306365 1028.356283 130 104 118
114.776141 132.061795 1031.205310 61 48 74
115.855635 217.549994 1025.744609 53 38 59
118.590660 -37.833158 1047.055701 146 128 145
115.856193 227.740193 1023.481659 53 42 62
121.642244 -222.184413 1064.538051 67 59 82
122.703643 -199.956548 1064.264384 57 47 60
118.650332 110.562001 1031.496177 65 51 75
123.465414 -195.771883 1062.421104 80 69 79
121.674005 67.607160 1036.095821 136 114 126
126.040225 -256.859730 1062.450750 141 112 128
125.963120 -222.900188 1060.337775 77 63 87
123.100782 6.142972 1036.876251 141 115 131
120.705256 224.177033 1017.098515 102 81 96
122.908540 142.240204 1023.529935 43 28 49
122.908540 142.240204 1023.529935 43 28 49
123.048816 100.504421 1026.224321 141 124 151
126.638391 94.201974 1027.216918 81 59 83
129.649835 -120.797963 1047.348239 63 54 57
130.288012 -192.353694 1052.936625 78 57 79
125.990672 201.093681 1016.179342 145 121 129
132.768834 -318.601232 1061.659307 130 116 140
127.105415 158.067593 1018.618076 81 62 79
126.856045 205.457107 1013.700479 139 116 120
129.790271 29.964755 1030.364396 77 60 74
128.097546 161.784093 1017.319198 144 122 127
132.984023 -224.391047 1049.419811 75 67 90
134.011932 -291.881950 1055.724341 83 61 89
128.666439 196.983967 1013.953753 131 106 110
129.834904 139.724953 1019.573400 139 116 121
134.917932 -238.993204 1052.683917 131 114 123
129.965636 132.298063 1017.517811 126 107 124
128.829298 213.473464 1009.681364 74 54 77
130.766113 163.880062 1015.500826 76 50 66
134.409624 -224.768658 1043.628023 71 63 86
137.223789 -279.481546 1053.479782 80 62 85
136.458825 -118.402924 1042.392861 55 42 56
133.636070 62.323499 1023.806322 76 63 79
139.420596 -199.509185 1042.733321 58 48 71
141.683946 -326.145927 1054.588722 72 50 68
140.368826 -248.774459 1046.107165 83 64 91
138.992904 -66.632847 1029.461521 73 56 83
138.560753 -20.752924 1025.825217 123 106 127
135.200559 240.957795 1002.387230 139 103 109
140.119463 -151.814286 1035.421602 145 129 140
136.238115 236.993629 1003.496712 47 31 38
139.051569 -10.870556 1023.405047 135 114 136
136.274134 233.620018 1002.458428 112 95 104
144.903265 -316.997709 1051.009572 145 124 132
139.895101 34.694638 1018.265881 80 64 87
139.469656 96.964288 1013.103648 72 51 73
145.075497 -289.970563 1045.163916 79 58 83
139.820380 158.701449 1003.427319 123 109 133
138.786722 212.658026 996.714699 77 58 73
145.082377 -151.610910 1029.739340 133 114 131
142.100555 161.608146 1004.730299 73 57 75
142.100555 161.608146 1004.730299 73 57 75
130.838345 286.036919 966.195989 138 122 109
148.058862 -47.750796 1023.974483 43 38 53
143.253228 232.708427 994.854521 139 116 120
144.263812 190.798817 998.598813 77 58 75
143.167900 216.534663 993.698659 115 94 119
147.715366 125.654453 1003.816121 57 49 72
150.811883 -154.321021 1025.030345 51 34 55
146.824081 100.920333 1001.631215 129 111 134
149.107074 94.245471 1006.826738 53 44 54
148.310922 79.235120 1002.009023 132 113 128
147.942479 189.623492 995.469944 82 63 82
149.444625 163.741016 996.572952 137 114 122
154.356010 -155.299767 1023.133514 132 108 118
153.255527 -4.557341 1009.064580 79 62 83
150.949951 168.826079 993.312255 146 124 126
151.753809 74.154121 998.922768 76 66 96
151.753809 74.154121 998.922768 76 66 96
155.462821 -97.426645 1016.824349 61 47 65
157.836962 -196.508274 1027.714131 138 122 140
149.679832 239.955550 985.104039 69 56 78
149.545766 224.390129 984.402317 121 98 120
155.342738 -46.869649 1012.210057 55 41 65
151.431085 230.355701 988.006329 49 38 48
157.839943 -154.897111 1020.823743 79 53 69
156.807904 -83.904438 1013.684189 65 46 71
158.013035 -159.140720 1019.659227 70 58 86
160.699936 -282.493400 1031.018967 80 58 76
160.659881 -223.413217 1023.368634 139 113 129
157.562082 -7.834247 1004.557699 93 80 96
162.593745 -281.289351 1026.949283 71 49 73
156.287340 124.693711 990.853598 49 43 66
165.313937 -321.189597 1030.312462 141 116 130
162.603970 -159.136894 1015.449998 60 50 73
166.252904 -292.744936 1025.741918 88 71 104
165.410930 -264.950519 1021.029847 61 51 74
158.990463 181.834881 981.216922 136 117 134
158.990463 181.834881 981.216922 136 117 134
162.475440 33.245403 996.229312 68 56 76
161.616059 116.866081 989.204018 180 75 34
167.459028 -241.167972 1019.480822 56 45 61
166.615988 -159.586574 1013.116726 56 47 67
161.788986 153.935270 982.967013 86 81 108
168.413210 -159.762576 1008.627364 46 40 59
163.087360 191.286021 979.477022 82 64 87
169.816587 -241.013742 1014.897397 49 43 62
163.512041 165.595623 979.600243 154 128 144
162.670753 219.722970 974.124974 129 110 131
163.562016 193.757619 976.055301 155 126 135
164.785225 190.792080 974.413680 85 69 86
171.058814 -229.802297 1010.048307 118 103 124
173.113833 -241.435460 1013.332095 69 53 71
168.650522 27.916389 988.149114 67 57 80
172.959497 -235.733396 1010.208738 134 113 128
166.187590 164.184005 975.360132 157 131 144
167.524437 76.422458 982.458277 83 61 85
171.964478 -79.947387 997.756082 84 64 77
174.127707 -248.094900 1009.748143 74 62 84
173.850126 -203.923133 1006.557069 76 59 70
171.110081 -3.439089 990.305786 137 117 136
173.956233 -77.652422 995.418365 71 49 67
173.874811 -120.549620 996.665091 70 59 75
176.070966 -199.075973 1002.331637 68 53 67
168.979178 231.158073 966.535500 135 109 125
171.157049 86.700250 978.061984 119 106 132
178.405153 -240.892660 1005.736074 62 49 65
178.405153 -240.892660 1005.736074 62 49 65
171.674824 193.472044 967.129257 154 127 137
180.845936 -283.514084 1008.330969 58 41 55
171.899970 226.715166 962.929646 56 45 61
181.084238 -279.379732 1006.301994 98 73 99
181.084238 -279.379732 1006.301994 98 73 99
177.430780 -44.538557 987.096573 133 114 131
182.911432 -340.094212 1011.131906 81 62 79
178.972834 103.944143 976.143566 102 90 120
175.938941 174.698124 964.325947 147 131 149
183.844323 -238.695340 999.931932 71 54 67
180.553446 -8.879262 981.802102 131 118 142
176.676366 176.521273 963.942519 91 69 97
185.140752 -262.041032 999.537294 144 119 129
185.883944 -268.281726 1001.428683 117 101 124
185.883944 -268.281726 1001.428683 117 101 124
186.510253 -294.522574 1002.215453 129 108 130
186.920649 -313.590977 1003.163101 80 59 84
178.067999 188.857741 961.349019 63 48 62
183.919455 -71.840149 983.801161 66 57 78
184.382743 -120.657653 986.756660 65 46 71
187.606329 -266.244946 997.988235 73 54 69
185.534280 -87.637365 983.192023 68 58 81
178.829922 236.207105 954.122165 137 108 123
190.942095 -325.576330 1004.283278 56 39 52
187.528308 -160.025992 988.826859 76 61 92
189.682708 -277.556582 997.601932 90 64 78
189.682708 -277.556582 997.601932 90 64 78
190.615558 -332.315037 1001.004013 79 57 81
190.861840 -241.649214 995.973925 122 103 112
191.507951 -243.930752 996.111884 68 51 62
192.344179 -242.826133 995.185180 77 57 70
188.361901 53.545636 966.706951 134 118 141
191.746694 -121.443354 981.650783 50 33 54
195.505414 -284.464814 995.347363 38 28 40
189.637655 36.983800 968.560214 134 115 134
192.591330 -89.114782 979.563934 56 45 65
192.591330 -89.114782 979.563934 56 45 65
193.140392 -201.086711 984.388093 106 96 108
190.167484 27.201122 967.595078 111 99 121
196.360997 -198.213237 983.946971 126 113 137
188.035391 233.772978 946.241131 107 71 87
194.255445 82.149584 957.370225 131 117 145
192.448341 161.937066 950.401076 140 122 135
197.790478 -89.040669 971.661692 63 51 81
194.400062 55.988346 956.512368 88 70 87
196.189010 30.001081 959.687886 48 36 54
202.427139 -293.562392 984.231812 82 61 86
195.257544 129.940524 951.932693 129 109 121
193.016255 234.997984 940.854227 143 123 146
194.473075 229.365299 941.816107 72 61 64
203.111311 -201.071362 976.096111 54 42 54
197.913534 101.516956 949.207277 78 68 98
205.613994 -243.462225 979.101430 81 62 81
198.955972 49.625465 952.324043 82 65 92
197.321212 162.121526 943.836146 138 112 125
205.794462 -163.803139 968.659985 146 128 141
202.354585 55.680702 948.063583 82 63 84
203.088531 44.182167 949.049286 133 118 139
203.088530 44.182167 949.049287 133 118 139
210.546650 -172.751970 964.650592 79 57 85
205.486896 126.151033 942.443791 54 44 67
206.975160 31.312564 947.499779 129 109 128
206.770021 33.472773 946.966441 96 73 95
202.490246 231.798425 929.813750 135 116 135
207.098325 89.113049 944.848411 60 41 62
209.077278 28.616035 944.575434 57 45 63
206.491730 159.595916 932.356922 129 114 135
214.632058 -169.403420 961.220333 71 57 81
214.632058 -169.403420 961.220333 71 57 81
209.134669 134.271254 933.250863 72 63 89
216.172096 -120.464543 955.183555 127 108 125
207.508714 215.368369 924.862897 90 72 95
216.125541 -91.420964 954.025007 60 50 73
220.716484 -288.097256 967.774030 46 28 41
208.346108 233.108722 922.919785 74 55 76
217.599571 -173.511692 956.807130 97 72 92
218.636923 -172.192334 957.195983 120 104 127
219.229042 -203.126354 958.831835 90 65 85
210.926470 180.263314 927.146288 122 108 126
219.704544 -204.740236 957.744513 124 108 119
212.107088 154.132780 928.895306 58 47 63
212.107088 154.132780 928.895306 58 47 63
212.329305 158.070769 928.569798 130 115 129
215.059349 30.959356 938.556745 135 117 140
211.311397 230.327608 922.608721 124 108 125
211.805975 230.523567 923.299758 124 108 125
224.866830 -284.809446 962.398943 137 111 124
213.972735 219.549017 918.354574 132 116 140
218.699464 54.069455 932.774186 88 67 92
228.105352 -332.482224 962.397352 117 96 118
221.648533 -16.228210 936.215394 134 120 138
230.060641 -286.499019 959.387390 47 29 36
225.241138 -94.698491 941.991595 64 51 67
225.241138 -94.698491 941.991595 64 51 67
227.130680 -220.557379 949.662650 87 72 100
227.130680 -220.557379 949.662650 87 72 100
228.869065 -204.639271 949.164983 65 45 58
228.313581 -173.496812 946.310614 91 69 94
225.674121 -21.859129 933.754131 80 61 82
223.694257 34.786561 926.802541 123 101 119
226.493764 -18.466978 932.717770 132 110 128
226.493764 -18.466978 932.717770 132 110 128
223.727338 97.106074 922.105580 78 65 91
226.750719 37.911056 926.334639 141 122 141
233.095906 -244.931987 948.239183 54 37 51
234.893535 -288.912034 951.754290 42 29 45
222.405658 217.867735 908.995464 135 119 142
228.464904 53.003454 925.301511 91 65 79
227.823883 47.647801 920.272019 81 62 79
229.456667 40.194300 923.356899 79 60 79
229.456667 40.194300 923.356899 79 60 79
226.362343 217.005844 905.504287 142 122 141
232.396112 21.555677 920.831983 76 55 80
235.399666 -12.402461 923.333888 58 48 65
233.606469 151.043472 906.302722 62 48 66
237.463834 -13.475122 918.460654 66 48 65
237.463834 -13.475122 918.460654 66 48 65
231.929001 225.501512 900.359873 62 53 63
235.026304 225.011073 897.989002 118 97 99
235.026304 225.011072 897.989001 118 97 99
235.317781 225.124608 898.388037 118 97 99
248.545737 -212.722779 928.318868 82 64 81
242.915829 151.208202 899.287884 66 53 75
245.029729 15.930115 907.324805 131 113 136
248.449296 -100.211640 915.791569 129 114 141
242.831987 178.276232 893.803441 69 53 60
242.831985 178.276233 893.803442 69 53 60
248.255110 45.222095 901.300899 91 76 103
250.108749 -13.512865 905.939170 64 51 75
251.122694 -51.691581 907.545855 139 121 144
250.789558 26.521458 901.882424 128 109 128
254.141118 -99.982892 911.646940 129 113 137
235.756083 256.696096 863.644778 254 186 167
255.747460 -17.479683 900.661078 131 118 140
238.772786 255.504778 856.009543 44 22 16
259.449472 15.682494 893.485862 136 117 138
262.027648 -70.510853 899.448034 73 60 84
257.295572 167.014051 877.576849 71 66 95
257.295572 167.014051 877.576849 71 66 95
258.820493 145.670570 879.212051 118 103 130
262.085868 49.361013 887.595066 69 54 81
262.793930 13.666545 888.831857 123 105 128
245.893108 271.831895 850.837398 32 20 14
264.945400 -31.687644 893.025336 126 108 131
265.319992 49.263295 883.467438 59 44 65
265.319992 49.263295 883.467438 59 44 65
251.113171 273.548361 848.342520 34 22 18
262.030798 221.528724 869.004596 115 98 107
264.439284 181.957400 868.373376 118 104 128
253.620176 262.306479 843.699803 250 178 160
253.620177 262.306477 843.699804 250 178 160
254.438263 253.019573 843.610778 255 186 166
260.376310 274.446217 835.989395 21 15 10
343.529040 -329.120060 969.325737 95 59 71
342.894999 -319.822224 965.628824 85 54 61
347.735076 -311.635503 967.791746 72 53 56
315.724316 235.385837 899.774473 54 35 38
349.820156 -320.707749 966.943541 197 164 155
355.681434 -273.036925 964.337596 44 21 26
359.238415 -335.720059 964.451589 97 63 57
309.800241 244.333650 869.304624 149 130 139
357.530966 -242.854654 957.670571 144 115 101
363.054573 -325.860661 962.166883 243 197 173
355.458983 -151.941763 942.387206 89 68 70
346.449665 -238.988854 944.576323 144 115 101
328.934801 232.611170 886.679106 30 19 21
328.934801 232.611170 886.679106 30 19 21
248.716738 152.157995 775.850934 219 176 155
326.947422 236.772272 881.992122 68 51 60
343.762691 -299.847796 959.370396 120 97 89
307.773853 272.862088 847.265938 46 36 42
359.831900 2.118736 928.340016 109 74 71
355.773436 170.257175 917.032958 173 138 118
326.921455 249.865997 864.160057 69 56 64
376.475987 -141.242847 947.779915 219 179 161
376.475986 -141.242847 947.779915 219 179 161
359.659735 179.119852 909.127916 95 62 53
364.567261 20.390399 919.611092 219 176 159
361.394866 199.346183 905.362881 83 47 23
360.949947 233.828909 899.654737 132 101 80
358.112504 192.844782 895.496877 185 144 121
365.000010 181.071752 903.590140 219 176 155
357.705289 202.976815 889.612509 215 174 151
360.914772 196.973209 894.007478 77 44 35
360.914771 196.973209 894.007478 77 44 35
361.358619 200.548543 893.948949 211 174 146
383.562939 -134.675803 933.287408 224 181 164
382.586624 62.329002 921.214406 181 132 122
388.035980 1.095918 929.676553 168 120 116
388.035980 1.095918 929.676553 168 120 116
385.313919 -123.783534 927.802667 175 129 122
391.974442 60.845949 916.975575 172 125 117
391.974441 60.845949 916.975575 172 125 117
394.663018 63.014651 916.325724 167 118 108
-560.208815 292.731089 1074.801499 154 137 128
-549.942220 337.403125 1570.899371 119 113 106
-557.411083 341.153702 1637.435981 33 28 29
-559.270167 301.143568 1655.523809 41 23 16
-559.270167 301.143568 1655.523809 41 23 16
-557.831075 155.312858 1664.858812 60 42 35
-553.340027 117.279793 1664.181026 47 27 22
-551.986947 209.253827 1660.400709 142 109 93
-555.753245 -236.296309 1692.235373 75 53 41
-547.730973 209.649183 1658.554158 89 47 34
-548.034990 191.268156 1659.062009 89 45 32
-546.272666 85.413099 1665.422474 82 42 30
-548.574330 -241.723463 1688.242394 157 114 105
-547.892628 -200.500767 1686.204639 162 122 110
-541.452672 192.005978 1666.925860 191 147 130
-546.872541 -192.563146 1592.583424 168 126 113
-536.104810 104.636737 1648.497944 208 161 147
-504.909446 337.533816 1590.435683 45 29 22
-501.722351 331.849812 1585.010504 59 45 49
-499.361735 266.714660 1608.201606 204 161 144
-496.300213 319.475355 1596.629013 102 72 77
-493.714526 327.389801 1580.411824 124 111 119
-496.256222 309.767974 1604.588409 197 158 144
-496.171550 311.591921 1612.049198 197 158 144
-495.514865 292.126236 1605.836350 113 81 75
-492.756963 260.882909 1606.301775 113 86 76
-494.806955 106.386565 1616.449311 219 170 154
-491.531630 312.344504 1601.467011 96 69 59
-492.209044 255.599881 1606.955406 204 161 144
-492.209045 255.599881 1606.955406 204 161 144
-493.461346 107.837463 1615.356024 222 176 159
-488.046016 199.349456 1606.414645 110 87 102
-488.026768 199.451559 1607.164197 110 87 102
-486.801733 247.917706 1603.861221 90 63 72
-487.716311 182.544593 1608.554357 107 86 101
-485.629462 234.849340 1606.845109 107 81 87
-489.715351 -359.892931 1641.367721 237 185 169
-487.749927 -141.905029 1632.490331 155 116 107
-477.578805 328.120746 1564.922825 75 55 67
-477.242909 321.895710 1571.519812 91 67 79
-483.019873 -35.086036 1626.768911 113 94 113
-485.153975 -277.210480 1642.769944 128 84 67
-481.982447 16.398454 1627.148029 110 85 99
-473.591818 326.722376 1557.045686 73 56 59
-484.970335 -282.826046 1642.306745 149 107 100
-476.866963 281.291463 1590.625518 53 35 42
-482.727637 -149.015417 1627.267628 110 85 105
-484.911635 -345.524997 1646.447833 153 110 93
-483.462086 -305.172977 1642.318319 118 90 103
-478.899198 12.064655 1614.952629 108 82 98
-481.111038 -252.503383 1636.249449 119 96 118
-473.857736 252.794102 1589.534739 51 30 38
-472.492940 107.345412 1598.322902 85 61 69
-472.492940 107.345412 1598.322902 85 61 69
-475.193017 -186.330526 1624.686759 77 54 69
-466.454454 319.005435 1566.701595 121 104 113
-471.809233 -150.087416 1619.097506 119 89 108
-472.118068 -188.544843 1620.678097 73 57 75
-471.668034 -277.192982 1627.823369 133 111 130
-506.187270 9.929472 889.845658 108 82 98
-469.510621 -244.225912 1623.107646 84 60 78
-458.936417 329.146010 1545.590465 56 49 46
-458.540817 248.112777 1571.169944 130 105 115
-458.542960 197.813169 1578.667862 135 113 125
-458.542959 197.813169 1578.667862 135 113 125
-458.045285 151.114242 1580.016329 93 71 89
-462.488999 -191.840111 1612.048934 85 69 93
-456.852235 -163.687551 1606.356522 79 63 81
-449.549368 135.224306 1574.260579 76 59 73
-454.146369 -282.490583 1611.400520 134 108 124
-454.108966 -352.001124 1616.602869 139 124 132
-448.407203 -49.848377 1586.554313 140 120 133
-450.591847 -350.483613 1614.028485 93 66 76
-443.864431 -14.373904 1576.425751 131 108 123
-445.551120 -198.048749 1595.372387 121 106 133
-442.942845 16.335884 1576.049697 127 103 113
-442.942845 16.335884 1576.049697 127 103 113
-443.511535 -87.318146 1585.720162 66 56 69
-441.399142 17.552308 1574.269079 82 58 66
-444.225686 -309.959151 1601.428201 59 46 60
-441.031364 -51.379435 1578.833052 74 52 70
-439.425353 8.447317 1571.428659 76 55 63
-438.957050 -15.941122 1576.381944 77 60 71
-439.583755 -87.984709 1580.052309 65 55 68
-436.621875 14.538827 1569.780918 81 63 70
-436.193523 131.531082 1560.687408 69 52 61
-440.168666 -384.714915 1605.278122 81 64 85
-435.196331 -52.743570 1572.997959 82 57 77
-435.204454 -186.702681 1585.424530 64 51 73
-398.679989 267.392249 1070.924845 41 35 66
-434.992833 -249.007539 1586.940684 121 108 132
-432.774329 -244.515136 1588.139381 129 111 134
-432.401642 -370.032074 1599.894983 74 64 87
-425.849061 -88.958080 1568.498297 58 41 45
-392.401724 244.746944 1082.234327 53 37 71
-392.401724 244.746944 1082.234327 53 37 71
-423.306312 -197.010684 1573.367406 73 61 79
-424.782591 -382.811954 1586.864759 83 62 87
-424.782591 -382.811954 1586.864759 83 62 87
-422.918052 -353.068628 1587.936046 72 57 78
-418.056152 193.696249 1536.475629 63 47 54
-418.056151 193.696249 1536.475629 63 47 54
-423.910704 -385.327996 1589.108939 124 110 128
-421.150688 -251.270587 1571.922655 122 106 130
-421.244573 -337.392204 1583.941124 91 70 85
-421.244573 -337.392204 1583.941124 91 70 85
-415.923937 58.027401 1546.666368 78 55 70
-420.172648 -350.364005 1585.264260 127 109 126
-414.659945 157.082809 1535.132278 163 126 112
-415.724273 -132.205816 1558.642093 140 126 138
-411.695832 14.571529 1545.481982 72 51 66
-406.132559 159.577209 1525.665695 244 175 158
-409.396430 -189.766933 1559.955002 69 58 78
-405.068239 165.962581 1526.159723 240 171 154
-405.068271 165.962577 1526.159727 240 171 154
-409.650864 -353.707960 1572.582452 90 68 93
-409.650864 -353.707960 1572.582452 90 68 93
-406.193785 -213.817794 1560.647029 62 50 72
-403.246912 14.124669 1536.228519 49 33 44
-405.395014 -387.889752 1569.902180 83 61 86
-397.107776 12.546970 1529.767344 82 58 76
-395.215405 158.787741 1516.845180 80 46 47
-397.381202 -87.844597 1538.155494 129 103 119
-393.102136 183.164830 1513.481448 67 46 55
-398.023542 -395.911824 1564.708288 82 63 80
-372.719126 290.168915 1038.600453 147 129 118
-374.085954 198.371081 1063.649154 47 35 65
-396.422552 -285.560473 1553.004597 77 58 77
-393.075280 -91.211470 1532.883521 52 33 42
-390.883702 -351.095974 1553.161105 124 108 126
-386.517010 122.561254 1514.952443 55 42 56
-387.418496 -91.759089 1529.903435 75 51 61
-384.554065 54.220679 1516.209193 63 46 59
-382.988152 -91.821078 1525.590126 71 51 63
-381.671749 -295.119171 1548.448974 71 58 66
-363.711783 241.623567 1051.169405 61 47 89
-360.963201 283.506028 973.092015 53 36 45
-378.030865 -88.947720 1518.634563 126 106 119
-376.957964 -93.828875 1519.318427 55 42 50
-376.957964 -93.828875 1519.318427 55 42 50
-360.819287 237.150690 1048.586854 57 41 82
-374.095578 -373.415754 1539.502002 78 60 77
-374.095578 -373.415754 1539.502002 78 60 77
-373.752186 -370.326297 1539.551277 72 46 60
-373.752186 -370.326297 1539.551277 72 46 60
-370.663688 13.867482 1504.944439 122 100 118
-369.748394 -161.396271 1518.677151 60 50 73
-363.776309 160.537321 1355.859044 35 27 38
-366.626259 145.926601 1491.495806 51 35 46
-368.715973 -256.870383 1524.345240 58 51 72
-367.359108 -96.265287 1506.868826 60 46 58
-355.641380 196.826914 1046.886858 48 37 77
-355.221661 215.924326 1045.083328 49 32 65
-355.221661 215.924326 1045.083328 49 32 65
-360.943378 178.118699 1350.044152 41 38 47
-363.806215 8.784092 1498.487604 48 35 49
-362.748911 -29.382824 1494.210956 68 47 62
-361.819589 58.286951 1489.729969 128 105 119
-358.237948 163.967475 1348.718121 104 93 103
-358.900200 13.726663 1495.823912 120 101 122
