ply
            format ascii 1.0
            element vertex 7101
            property float x
            property float y
            property float z
            property uchar blue
            property uchar green
            property uchar red
            end_header
175.781894 -284.440112 1018.326569 66 43 57
174.654305 -131.437278 1002.110386 82 61 76
174.502969 -245.444441 1013.745022 136 114 132
175.919163 -212.810779 1009.813881 92 67 81
173.997116 -237.405133 1011.831379 148 122 135
181.547177 -284.925866 1011.198044 79 52 72
181.547177 -284.925866 1011.198044 79 52 72
186.440015 -4.827823 978.431511 130 112 129
188.524830 -264.706421 1005.212402 146 121 135
190.023220 -357.694602 1012.051773 86 54 73
190.690160 -282.431841 1003.354263 139 115 133
191.248751 -254.196215 999.675369 88 64 76
190.153062 -61.446333 978.676605 79 57 81
188.308048 36.632508 967.330360 144 125 142
195.008922 -363.130975 1006.332302 86 61 75
200.554848 -199.029386 984.135723 141 125 149
196.009457 40.401086 957.648563 153 134 151
198.827136 55.427438 953.504753 91 69 93
202.631140 -287.582397 989.131355 84 58 71
206.844497 -190.280414 975.362492 79 62 89
206.844497 -190.280414 975.362492 79 62 89
207.669306 -182.668149 974.558163 82 65 92
208.546329 -165.379965 972.492695 143 124 139
208.419394 88.491362 945.413780 70 46 70
208.933187 -200.581646 973.949528 142 117 131
211.302614 -285.110617 981.536293 152 124 137
212.948823 84.426725 939.944839 126 111 132
213.354540 84.299302 939.890957 126 111 132
210.796666 160.627127 930.362320 94 77 104
214.931631 -366.960812 984.483910 141 122 143
214.812779 -170.409429 963.290215 90 67 99
214.376020 33.447447 940.645123 92 73 100
219.509912 125.436532 928.041077 80 56 88
230.960917 31.834719 931.249428 152 130 149
227.073860 -125.253403 946.743107 73 51 70
224.802661 103.286469 922.683144 85 70 98
224.804831 151.643252 916.908455 68 55 77
226.720238 -14.873344 933.385658 80 61 76
227.058673 -19.663569 933.850002 134 112 130
223.777413 79.428053 922.327709 153 137 160
229.283285 54.952556 924.475098 150 130 153
230.982041 40.767580 923.914433 77 55 83
231.027198 34.819320 924.518490 71 49 73
235.897231 -247.382879 953.022385 74 51 66
235.897231 -247.382879 953.022385 74 51 66
232.351661 48.553035 922.257996 64 52 72
230.996060 54.813999 920.809460 137 123 147
236.985445 -290.758276 955.218697 88 65 80
232.604170 -206.694055 946.356201 96 74 86
232.604170 -206.694055 946.356201 96 74 86
239.458656 -365.999222 961.906147 133 109 127
236.161876 122.925484 910.404873 93 69 93
245.537877 -2.255769 918.317509 111 89 108
250.855827 120.602334 890.801716 61 50 70
255.245805 15.475971 899.877167 142 124 141
259.743714 -210.632539 922.186279 98 69 94
259.743714 -210.632539 922.186279 98 69 94
264.811254 2.189551 894.754219 117 96 118
268.265438 18.115862 889.199448 122 97 117
270.403695 -16.865523 892.096615 117 95 119
128.066385 -156.662202 917.217445 237 192 178
270.748162 27.836066 881.363869 239 199 181
270.771122 0.772622 884.019089 240 197 180
277.147603 -100.464702 890.576839 203 165 153
-339.449048 -23.385344 890.793228 160 113 109
135.730445 -91.663253 883.265972 152 116 108
-227.689362 -73.152298 890.927887 239 195 172
-226.571250 -73.125827 890.611172 239 195 172
148.861599 68.855309 874.006653 244 201 184
-265.228081 -32.529530 886.376476 207 172 159
-220.574117 -91.678953 888.079071 178 131 123
269.891095 87.081873 832.097912 148 108 103
167.444766 -22.001870 868.593502 244 201 184
540.326643 -235.296893 825.148582 130 136 155
540.326643 -235.296893 825.148582 130 136 155
436.862707 -135.216367 818.848228 152 116 108
44.831336 -144.390190 810.266018 178 131 123
-203.971219 100.595629 806.356049 166 120 112
17.012893 -73.383337 798.585892 207 172 159
-437.336159 -19.001406 1621.831894 125 103 121
-437.462139 -1.530762 1618.585396 98 71 87
-438.291168 -109.726548 1630.357170 123 99 117
-436.394215 204.604697 1595.591450 88 65 79
-437.328243 -86.560202 1627.406883 123 100 105
-436.931133 -93.243271 1628.361893 120 97 111
-435.557461 164.615297 1599.046898 73 54 63
-435.883331 -100.454247 1627.988434 135 114 129
-432.728052 108.625150 1604.907799 76 62 64
-433.348465 105.945396 1604.409599 132 111 120
-434.363747 -8.340943 1616.759109 94 68 82
-434.167004 -98.750812 1626.287270 58 35 43
-434.167004 -98.750812 1626.287270 58 35 43
-433.706284 226.727724 1588.990784 70 53 66
-433.610439 256.995845 1582.964611 67 50 59
-431.193209 261.846042 1583.104038 121 102 119
-431.193209 261.846042 1583.104038 121 102 119
-429.240847 133.314335 1598.666859 70 56 68
-431.621599 -59.298718 1618.446922 93 67 83
-430.179787 109.334707 1599.558640 123 101 119
-431.234026 -29.984745 1614.374924 86 62 86
-430.860329 -71.363860 1618.355370 87 62 76
-429.109955 -62.671369 1615.727806 81 62 71
-426.206827 27.010280 1603.518105 133 107 123
-424.630117 62.698078 1599.913979 65 47 60
-424.630117 62.698078 1599.913979 65 47 60
-425.579977 29.577458 1603.020096 73 59 71
-423.006821 153.164315 1586.518669 122 78 85
-423.890829 166.802347 1583.820248 114 71 82
-419.945812 105.377400 1590.397167 66 49 60
-421.636152 -35.859415 1605.306625 138 110 130
-419.108677 37.813756 1597.742558 71 46 56
-419.276810 17.447680 1599.699116 58 41 54
-417.381477 132.680678 1585.358047 57 43 54
-417.941999 36.735561 1595.474243 82 52 65
-418.709230 162.039816 1579.629517 48 29 21
-418.107939 217.197871 1572.853470 88 65 70
-415.835142 -16.975763 1598.999786 111 77 83
-416.007566 -116.432905 1608.563423 93 62 77
-414.576769 -15.945569 1597.550201 140 113 122
-413.714314 202.123117 1572.828579 55 39 46
-415.564299 197.986901 1571.455956 139 115 127
-414.073753 -131.356657 1608.861351 110 94 112
-413.971806 -130.406785 1608.550072 120 109 125
-413.529110 -12.912217 1595.427418 104 78 91
-414.228916 222.224259 1568.301201 141 116 126
-414.147854 316.297555 1557.685471 131 119 125
-413.239479 149.937415 1575.968552 252 183 166
-420.104837 160.894942 1571.210670 252 183 166
-420.104837 160.894942 1571.210670 252 183 166
-410.558891 23.541072 1591.113186 44 30 34
-410.833120 -11.430452 1591.961193 91 66 86
-410.833120 -11.430452 1591.961193 91 66 86
-409.668922 -89.028531 1598.432446 133 109 117
-407.899094 134.726608 1573.465729 120 97 111
-409.172535 161.029983 1569.419193 55 32 24
-406.220293 288.577795 1556.630039 46 35 43
-408.604145 221.001887 1562.698841 131 109 121
-408.048153 -66.803974 1595.170403 57 39 46
-407.392836 -80.356872 1596.423244 71 52 61
-407.557726 -62.361765 1594.202900 72 50 55
-405.773497 -6.524179 1586.945057 91 69 88
-404.639006 15.280755 1584.339905 70 48 66
-413.151121 177.844870 1560.264778 40 26 20
-405.117464 251.582623 1555.042362 130 106 118
-405.117464 251.582623 1555.042362 130 106 118
-403.411913 -130.472350 1599.080563 65 52 66
-405.282831 177.338195 1562.907124 40 26 20
-401.903582 135.113668 1568.264771 112 95 106
-402.141762 140.170300 1566.602325 114 97 108
-399.934649 -92.219007 1590.416241 48 38 44
-400.046730 -54.688919 1585.968018 132 102 121
-396.926498 195.667875 1559.383011 43 31 29
-400.552320 252.979517 1549.798107 57 49 56
-394.360471 129.121709 1566.649628 50 42 52
-398.950076 -1.441097 1578.024101 80 59 81
-397.314215 -94.581437 1588.197803 106 85 93
-395.817256 -90.539539 1588.098049 129 103 121
-394.117856 156.335926 1558.642292 55 41 53
-395.025778 -94.899166 1586.137962 116 92 102
-393.916965 220.655441 1548.240948 107 91 102
-407.572699 342.912841 1524.584007 29 28 24
-388.320112 -131.887817 1585.305977 80 59 74
-385.825753 289.614940 1537.027550 51 44 51
-387.975407 224.625731 1543.067741 122 101 110
-388.270497 221.408010 1542.971039 56 43 51
-386.950397 221.678281 1543.333054 56 43 51
-385.772610 -87.601656 1578.169632 132 115 126
-386.102676 10.787606 1566.341305 41 33 40
-387.379193 127.875912 1552.459049 46 38 49
-384.051156 101.281190 1556.144238 91 65 78
-385.143709 67.256713 1558.429623 114 94 106
-384.788465 88.410264 1555.438137 72 58 69
-383.664989 81.551254 1556.440449 73 53 58
-384.324741 -94.646758 1575.165081 51 43 50
-381.994271 158.997393 1547.712231 128 108 113
-383.524728 -64.747244 1571.492386 119 97 121
-383.710432 8.164138 1562.475586 114 96 119
-384.605622 195.034099 1540.635777 53 43 55
-382.076573 221.106839 1538.122749 51 37 41
-381.838417 -23.450765 1563.385677 141 117 135
-381.065869 -85.393882 1570.623589 69 52 61
-378.889418 154.666138 1544.494915 111 94 105
-380.026650 -69.164640 1567.522335 132 108 126
-380.195093 134.022439 1544.735241 76 60 61
-378.232455 -92.932618 1570.573139 85 56 71
-378.219318 194.479918 1537.567902 51 34 47
-378.219318 194.479918 1537.567902 51 34 47
-378.110075 -62.726980 1564.906788 51 38 46
-376.159215 156.795204 1539.791393 53 40 56
-376.091027 100.287414 1545.739651 49 42 57
-376.914382 -65.463251 1563.391113 130 105 119
-374.868894 55.889326 1550.899220 57 42 56
-376.502872 11.447599 1554.716396 50 42 53
-374.866986 126.617825 1542.387390 48 38 51
-372.810507 219.037318 1528.272820 53 38 52
-371.199322 19.639874 1550.635147 73 53 65
-389.513755 330.124307 1506.435299 40 35 32
-371.827960 142.657924 1536.460781 26 22 28
-371.216726 29.995435 1548.056698 136 118 135
-369.977975 -96.214545 1562.460423 58 30 49
-369.750261 -97.196347 1561.978436 118 99 116
-371.550870 -115.954602 1562.854862 118 97 122
-369.684172 156.875896 1532.903481 129 106 111
-369.233036 196.948063 1527.690697 49 36 44
-368.198991 -28.429198 1553.132248 59 45 57
-367.802167 -28.505027 1553.245735 59 45 57
-368.162036 154.470968 1532.081223 58 45 59
-369.898272 -117.421699 1560.965252 85 64 89
-365.108061 253.928685 1522.039318 42 36 41
-367.772818 -30.937755 1551.481915 129 103 121
-367.668962 128.587699 1533.607769 77 56 71
-367.315865 125.816870 1533.972836 115 99 106
-366.540980 275.266504 1516.812325 42 32 48
-367.234921 -96.270525 1557.485199 126 104 128
-366.248059 76.760769 1536.997128 123 98 112
-364.342642 -28.982046 1548.472023 61 43 56
-364.342642 -28.982046 1548.472023 61 43 56
-364.799142 -94.823194 1555.428886 83 53 66
-364.799142 -94.823194 1555.428886 83 53 66
-362.552595 6.418182 1542.306709 103 90 106
-362.898207 -94.812316 1553.070164 101 67 78
-362.898207 -94.812316 1553.070164 101 67 78
-362.166405 113.965249 1529.330635 109 90 105
-360.495806 -65.617687 1549.407673 47 37 54
-361.212182 170.785296 1522.776127 43 36 49
-358.349562 25.184736 1538.346386 64 53 69
-358.349562 25.184736 1538.346386 64 53 69
-360.146427 14.312226 1536.205959 79 60 79
-358.329940 69.394290 1530.938625 70 52 69
-360.735655 83.779758 1526.254272 107 90 111
-360.735655 83.779758 1526.254272 107 90 111
-354.839826 -71.690506 1544.042683 124 108 132
-355.510020 11.054398 1533.845043 126 105 127
-355.261016 92.353010 1523.785496 118 100 117
-354.526472 -52.383953 1539.002037 83 66 93
-354.526472 -52.383953 1539.002037 83 66 93
-352.453089 -72.913182 1542.077923 55 42 56
-353.927326 97.558719 1522.473812 114 99 113
-350.560546 -68.396354 1540.635109 46 36 49
-350.560546 -68.396354 1540.635109 46 36 49
-351.528525 191.211438 1510.670376 50 37 45
-349.599242 55.693376 1525.604248 48 36 42
-352.026415 243.516302 1502.232552 37 29 40
-349.237990 110.387444 1517.605305 47 36 52
-348.478627 9.583142 1527.554226 120 101 122
-352.474427 311.687016 1492.357540 107 92 106
-352.474427 311.687016 1492.357540 107 92 106
-348.260427 53.559250 1522.672462 102 80 98
-349.282885 170.509839 1508.670998 51 42 55
-347.585106 72.905940 1519.690228 113 93 106
-349.612713 265.556598 1497.140312 39 39 53
-347.440529 27.601433 1523.761463 115 95 108
-346.047568 152.133322 1510.693455 44 34 50
-346.027064 1.018450 1526.059628 85 66 83
-350.709414 311.503386 1488.793373 105 92 106
-344.752049 2.520680 1525.341797 107 89 102
-344.752049 2.520680 1525.341797 107 89 102
-343.805552 50.306219 1519.725323 50 36 54
-344.580007 42.597324 1519.841766 118 92 108
-343.081141 39.531183 1518.355942 64 49 70
-341.046953 148.552608 1504.942703 37 31 42
-339.414692 -141.510439 1536.838818 61 58 80
-339.414692 -141.510439 1536.838818 61 58 80
-341.774154 144.768357 1503.922558 40 33 38
-340.598679 -0.520059 1518.006420 120 99 124
-337.722373 -69.060272 1526.075649 51 40 60
-336.224365 5.006040 1518.591499 46 37 50
-337.591505 125.891721 1503.659630 51 34 47
-338.338733 136.255491 1502.077770 55 39 50
-335.316396 -166.865647 1533.977222 55 48 61
-334.955764 -69.757658 1523.225594 55 42 64
-334.455824 187.283230 1494.408321 27 23 28
-332.352543 -67.114645 1522.679424 124 108 132
-331.313419 -141.795194 1526.929855 73 63 93
-330.727673 -150.813198 1526.614094 86 63 91
-331.857991 23.681928 1506.557465 79 63 86
-331.857991 23.681928 1506.557465 79 63 86
-328.489399 -144.797873 1525.525761 130 109 131
-327.494931 -69.352382 1515.512180 59 46 60
-326.745939 188.299537 1486.481190 33 29 35
-326.194787 188.353670 1486.583233 33 29 35
-322.116828 -69.414192 1508.855820 66 48 71
-318.846750 27.115113 1496.548653 66 50 68
-320.070243 91.614330 1488.770962 44 34 47
-318.500328 -118.914187 1512.114716 123 104 125
-318.977475 24.833788 1496.101093 114 94 106
-317.596173 2.149627 1497.373486 134 121 137
-316.865611 -69.344354 1505.260754 106 94 116
-317.247391 -34.554073 1500.296688 84 63 88
-316.532493 -104.389417 1507.277393 60 43 56
-316.106749 -60.375059 1501.940918 130 109 131
-313.562179 -65.329164 1501.342678 58 40 53
-313.562179 -65.329164 1501.342678 58 40 53
-314.327002 -171.783113 1512.234402 125 113 131
-314.327002 -171.783113 1512.234402 125 113 131
-313.623571 -51.879025 1498.518467 69 51 68
-313.623571 -51.879025 1498.518467 69 51 68
-308.520770 -132.184744 1500.827026 60 44 67
-308.520770 -132.184744 1500.827026 60 44 67
-307.259798 -140.111041 1501.649857 46 27 42
-303.685498 -185.588503 1507.975864 61 42 63
-305.439973 -106.939936 1496.354294 113 96 110
-304.210210 -3.714202 1482.968998 89 71 102
-303.878832 -120.997429 1495.599270 118 101 112
-301.330829 -134.676588 1495.500374 67 49 66
-301.330829 -134.676588 1495.500374 67 49 66
-299.564767 -52.145118 1481.738377 91 70 95
-295.177102 -165.960264 1494.213867 139 111 131
-296.116424 -11.743695 1475.480652 89 69 88
-294.881248 -24.492525 1476.115608 84 67 81
-294.881248 -24.492525 1476.115608 84 67 81
-291.209650 -155.953944 1489.790058 119 103 121
-291.253138 -146.472669 1487.800026 51 34 43
-290.084434 -155.881643 1487.830162 60 43 56
-292.891574 -13.696437 1469.504261 126 109 136
-292.891574 -13.696437 1469.504261 126 109 136
-289.729977 -104.518855 1480.078888 60 43 57
-289.729977 -104.518855 1480.078888 60 43 57
-287.929845 -35.568115 1473.227406 68 42 58
-287.929845 -35.568115 1473.227406 68 42 58
-288.618708 -154.604495 1484.592628 133 111 129
-286.854768 -167.176211 1484.088993 129 110 129
-283.232355 -182.979465 1481.784248 136 115 137
-393.013120 304.024482 1385.246086 24 28 52
-393.990445 204.964614 1395.361900 28 29 63
-352.059984 142.587578 1414.463902 54 46 93
-347.984385 136.819768 1414.646530 36 35 75
-348.765445 139.047420 1412.214851 116 100 153
-273.519707 -105.895400 1464.348316 61 45 62
-392.092180 299.090791 1380.067921 116 96 141
-376.839876 156.011558 1399.097729 131 113 144
-376.839876 156.011558 1399.097729 131 113 144
-272.266960 -140.871000 1466.484547 52 39 61
-271.544695 -47.554499 1455.275154 88 65 87
-271.575594 -45.137918 1454.724121 78 57 79
-270.235968 -69.815570 1456.203461 118 101 115
-267.922521 -39.238262 1451.871681 70 52 69
-370.641375 166.071749 1393.401623 40 30 47
-348.001933 8.481655 1416.474247 105 89 137
-352.309179 139.645123 1398.895359 107 91 144
-375.015974 296.081805 1373.494530 58 51 64
-367.715073 162.321043 1389.847469 30 29 33
-320.467353 101.848686 1409.534168 119 99 141
-325.799441 115.749443 1405.134869 98 83 115
-364.120150 169.980431 1386.643696 110 94 101
-347.401476 14.412317 1407.710648 97 82 133
-257.885909 -195.703065 1458.000946 75 54 86
-362.283993 155.625427 1384.650135 119 100 139
-370.577073 219.151783 1373.955727 35 37 48
-362.484121 274.131775 1370.483685 29 24 39
-240.658426 -175.283170 1437.591743 86 60 78
-320.755720 148.987877 1372.815418 63 56 77
-344.125700 279.606533 1351.771641 23 22 24
-270.883131 114.060688 1387.513447 36 26 62
-816.298389 67.114544 1259.660339 40 33 70
-339.532208 196.601224 1358.770561 68 63 84
-337.431383 165.849924 1359.049797 45 34 54
-269.032097 66.954839 1388.198185 40 31 57
-226.916385 -183.990932 1423.400784 45 29 47
-335.124135 162.185407 1356.581783 47 34 58
-336.705399 250.960112 1345.525360 27 24 50
-268.973684 76.779467 1379.426384 99 83 136
-218.548107 -235.912442 1420.644283 129 106 134
-347.346163 323.366261 1327.788067 135 106 97
-216.199470 -201.024032 1415.957642 57 43 55
-255.888534 65.804881 1377.727127 30 23 44
-254.441381 66.691244 1374.285412 76 69 120
-212.906098 -237.186837 1415.500927 128 102 115
-318.692350 157.550442 1342.508411 45 39 58
-250.727892 -48.447382 1374.815655 71 61 104
-314.853930 158.606851 1337.058163 60 57 73
-248.885393 -48.314258 1372.939301 26 17 57
-245.426822 54.880750 1362.294579 64 58 111
-244.860935 47.978988 1361.332512 76 67 118
-236.978030 24.696682 1362.538719 43 34 67
-237.208819 110.012519 1353.616810 36 26 68
-238.159657 -5.221708 1364.157772 69 63 110
-269.107723 -171.825647 1373.741245 36 33 88
-308.376265 176.473796 1328.390789 96 86 133
-234.969211 -0.943132 1363.322544 34 25 51
-234.419274 92.721093 1353.496265 26 21 48
-234.419274 92.721093 1353.496265 26 21 48
-234.573126 2.324663 1362.376213 33 26 59
-234.928370 104.510248 1351.673222 38 29 69
-262.775588 -80.745709 1364.036369 46 42 84
-262.775588 -80.745709 1364.036369 46 42 84
-305.594206 179.288602 1327.050591 34 32 52
-247.028995 54.573315 1350.753689 37 27 73
-304.967141 169.823766 1325.152779 106 90 138
-234.928799 36.550662 1354.603577 62 52 98
-233.232307 11.893442 1357.202721 36 33 78
-302.724123 184.663463 1322.790909 34 28 59
-302.724123 184.663463 1322.790909 34 28 59
-301.948524 158.309042 1323.887157 110 92 139
-328.356981 211.549425 1310.996151 22 23 37
-226.158524 -3.393818 1352.705383 45 32 64
-243.004608 55.682188 1342.082119 40 34 75
-230.172467 -54.868567 1356.105995 34 25 58
-240.785480 57.873994 1341.869164 101 87 135
-240.785480 57.873994 1341.869164 101 87 135
-221.318507 -40.309039 1351.622772 84 69 120
-219.815755 0.748704 1346.742439 47 34 66
-287.798190 158.110881 1309.183979 100 86 134
-219.595289 -119.705582 1350.788307 30 23 56
-219.595289 -119.705582 1350.788307 30 23 56
-211.023021 93.710065 1328.889465 31 25 56
-206.933379 60.518348 1325.588799 24 18 49
-204.749632 -53.734595 1336.197948 22 18 43
-240.854383 -189.174438 1343.094158 91 70 115
-236.329627 -176.011515 1341.855717 95 73 115
-202.564812 35.529435 1326.087666 33 27 50
-224.396253 -173.157835 1335.968781 24 18 37
-267.105532 172.673643 1287.897015 58 47 87
-207.076216 125.866890 1302.727604 27 25 55
-266.578603 161.314273 1288.786697 64 47 90
-261.505938 150.827348 1284.444141 61 45 76
-227.373290 130.295277 1288.746738 54 45 101
-225.473332 126.684415 1285.944748 124 105 156
-272.942519 193.041992 1271.073055 77 62 93
-209.497643 83.534622 1291.388416 89 79 132
-229.574084 131.811118 1283.205414 117 100 157
-209.063196 4.612947 1298.464298 93 76 119
-208.561444 68.750215 1291.581631 92 76 123
-207.202721 108.162117 1286.335659 48 32 86
-214.130592 116.689801 1282.902336 119 100 151
-492.092896 18.444632 1251.278019 31 28 60
-259.049940 167.279351 1270.423317 118 98 140
-427.860928 154.339957 1245.219994 57 41 75
-207.947326 -24.136402 1293.456078 98 81 114
-199.799442 45.944184 1287.238979 95 77 130
-245.952868 178.264832 1265.343761 53 39 81
-229.257321 -169.719183 1302.925301 67 59 106
-198.203409 9.981426 1288.457203 46 32 74
-212.277865 -113.861310 1298.895741 19 15 27
-197.226453 91.731912 1279.900742 51 36 80
-197.226453 91.731912 1279.900742 51 36 80
-197.530687 4.748458 1288.240528 33 24 57
-229.575706 -173.314416 1301.060295 30 24 49
-195.355034 35.158283 1281.152534 85 72 124
-220.602989 -145.968354 1294.863224 105 84 129
-216.682220 -62.124527 1286.153030 101 84 127
-190.703297 50.861251 1275.535679 29 24 53
-190.703297 50.861251 1275.535679 29 24 53
-189.358771 -12.641118 1281.790638 31 23 46
-196.491838 -65.725935 1284.816933 101 84 127
-216.569495 -155.413175 1290.681648 112 93 132
-216.285729 -155.462193 1290.661526 112 93 132
-192.629635 -66.145426 1280.932617 96 80 128
-184.103394 82.030505 1264.607048 29 21 52
-418.582153 186.521196 1223.962021 36 34 64
-215.486717 -174.298871 1283.986568 114 94 141
-215.486717 -174.298871 1283.986568 114 94 141
-179.001474 43.215865 1265.175915 96 80 133
-187.466419 116.592598 1254.422760 114 97 148
-211.350346 -174.861491 1280.280209 55 34 72
-177.632344 78.228927 1257.581711 34 24 54
-405.936670 278.473210 1211.491680 41 36 63
-180.639458 110.494912 1253.405094 38 33 78
-195.199049 125.945330 1249.368382 49 43 92
-195.199049 125.945330 1249.368382 49 43 92
-175.966203 91.942364 1254.823303 25 20 59
-175.030529 -71.903467 1270.771885 35 28 63
-180.862272 -90.253502 1271.681118 99 83 131
-180.862272 -90.253502 1271.681118 99 83 131
-203.935146 -173.445237 1277.260303 38 27 47
-187.414074 86.846882 1252.050400 109 96 142
-203.406644 -164.108527 1275.113869 28 24 53
-194.203389 122.105515 1246.732807 123 104 155
-190.972304 116.195071 1247.111320 121 105 153
-201.165366 -171.706760 1271.216297 83 64 107
-202.028918 -164.429832 1270.211220 97 81 112
-168.116891 -4.699007 1253.604889 118 141 157
-191.012967 -105.874872 1261.299324 102 85 136
-155.616748 64.832067 1246.509361 104 128 146
-157.138145 65.985173 1245.319080 66 89 105
-163.317752 -98.191196 1260.716534 22 20 50
-175.298858 77.812958 1240.671158 40 49 82
-208.361983 167.597687 1228.567600 54 40 74
-160.727537 -15.825099 1250.870419 169 201 214
-388.479161 135.456896 1214.232635 122 102 144
-184.758747 -218.993211 1268.123913 58 39 72
-175.450969 70.250189 1240.036774 159 169 176
-160.200739 -106.452143 1259.053230 44 28 59
-160.814476 -12.104621 1249.286270 116 136 153
-160.814476 -12.104621 1249.286270 116 136 153
-161.634421 -8.374552 1248.045158 103 120 139
-168.708611 66.957140 1235.674763 40 51 71
-221.059728 183.631480 1219.256783 144 123 156
-151.906395 -52.840781 1247.608948 85 108 124
-194.752717 -97.584003 1248.366451 30 25 56
-194.752717 -97.584003 1248.366451 30 25 56
-166.993427 61.846405 1234.115601 138 159 167
-167.894828 58.549571 1232.780361 58 63 88
-218.020797 187.143314 1214.374638 63 56 69
-177.196872 75.148958 1228.152847 34 39 54
-150.190592 -113.081920 1248.962498 47 35 63
-148.888040 -107.271028 1247.957039 92 81 121
-148.888040 -107.271028 1247.957039 92 81 121
-155.097401 103.156579 1225.788593 33 25 56
-155.097401 103.156579 1225.788593 33 25 56
-164.363909 -15.065467 1236.082649 172 194 205
-162.735975 -17.731117 1234.848213 183 202 210
-162.735975 -17.731117 1234.848213 183 202 210
-175.548422 75.482780 1224.213314 72 79 98
-167.062426 -8.065838 1232.452202 166 188 199
-166.108513 -9.824380 1232.628441 116 130 148
-149.300623 -141.187048 1246.777153 36 32 68
-144.802320 -109.353614 1243.163681 30 25 56
-144.802320 -109.353614 1243.163681 30 25 56
-144.802320 -109.353614 1243.163681 30 25 56
-143.446422 -54.512405 1237.790966 73 94 116
-170.773435 51.872933 1224.911976 129 145 157
-177.321970 64.158392 1222.120190 60 61 71
-142.147887 -54.453754 1234.181309 123 140 153
-177.386987 69.025457 1217.951107 47 59 83
-105.603397 -278.772187 1257.279968 28 25 51
-139.426398 -109.383965 1237.642193 86 74 116
-144.944215 -66.807055 1231.499958 122 131 144
-177.672029 67.449558 1215.472317 125 148 156
-235.913038 -185.402131 1234.363937 108 84 118
-175.639367 55.071360 1213.448429 147 159 165
-137.894070 -66.693050 1227.170467 36 30 53
-167.816460 43.493345 1213.470173 208 218 225
-148.437858 84.055740 1210.378647 32 32 68
-233.524966 -187.026703 1231.587601 64 41 79
-175.738728 55.537623 1210.879326 83 82 92
-175.738728 55.537623 1210.879326 83 82 92
-133.300543 -117.491555 1229.117489 103 85 138
-106.879628 -134.879029 1232.084846 105 81 111
-130.413222 -105.303299 1227.686024 92 76 123
-176.160121 63.507140 1208.196640 96 102 113
-129.727483 -109.660971 1225.760651 45 31 65
-168.216383 49.916539 1203.747177 135 131 137
-168.216383 49.916539 1203.747177 135 131 137
-120.950449 -126.979911 1222.317600 48 37 63
-120.950449 -126.979911 1222.317600 48 37 63
-179.174423 -248.452854 1230.736637 35 28 49
-169.469535 150.920486 1191.122341 54 39 70
-171.782792 59.055388 1199.404907 17 18 32
-168.415439 53.070694 1199.075794 201 196 198
-407.640648 239.575076 1169.456673 32 27 58
-119.872725 -114.573479 1217.618847 92 77 121
-120.666099 -131.985116 1219.157219 103 82 115
-117.562616 -86.345696 1212.718487 88 73 111
-117.444098 -140.268278 1217.132282 48 33 60
-111.885929 -111.457324 1208.752155 46 33 59
-152.078068 159.341848 1172.811031 66 51 78
-407.713556 257.447720 1154.494476 39 32 53
-148.981977 144.616914 1172.803020 51 38 70
-102.339840 -25.062829 1190.039062 97 81 129
-105.419624 -34.945309 1188.585567 102 87 115
-97.392249 45.371562 1178.735161 54 42 94
-162.896144 -262.897134 1204.827785 107 92 136
608.899307 3.845447 1207.971859 94 81 133
-96.253341 -14.527011 1179.871464 98 80 127
-118.108535 -221.406150 1198.896217 64 47 81
-120.312083 -141.362822 1190.481949 91 77 113
612.619257 0.089223 1205.377769 96 80 128
-120.058203 -141.359425 1190.436745 91 77 113
-85.119265 59.602857 1164.718819 109 93 141
-107.541275 -220.450234 1191.158295 121 100 139
-133.130574 136.415696 1154.260445 61 47 71
-104.567122 -223.821926 1187.292290 72 53 92
-129.577792 165.902603 1147.952461 49 37 67
-129.577792 165.902603 1147.952461 49 37 67
-145.214081 182.628500 1138.917637 60 50 62
-117.883813 139.099717 1138.755894 48 38 55
-81.138152 109.503841 1139.440823 137 118 169
-125.129032 -250.763488 1172.899818 32 27 56
-31.071779 22.390282 1144.229698 86 73 127
-114.052546 144.316304 1133.353138 53 37 60
-35.621360 26.104516 1142.679882 30 25 70
-24.892507 13.169901 1139.764690 62 47 91
-79.750884 -258.180594 1158.370590 42 34 57
-81.107152 120.853639 1121.289921 87 74 130
-35.039741 31.555501 1125.910282 56 41 92
-31.842592 27.362460 1125.397682 61 43 96
-95.787960 142.169321 1114.915085 74 54 101
-116.182423 175.595891 1111.845875 75 62 84
-1.081665 -4.521419 1121.113491 36 28 59
-1.081665 -4.521419 1121.113491 36 28 59
-31.434205 -150.489593 1131.470871 44 32 54
-46.945819 -259.570265 1139.553738 137 117 140
-35.069478 -172.547805 1130.377483 39 31 71
9.123824 20.616065 1108.472443 36 27 60
65.049905 -273.267007 1132.620144 94 70 100
3.696844 59.350055 1102.356339 23 22 62
9.243207 0.379203 1101.962280 78 69 120
-412.486076 172.833574 1106.572056 82 66 113
82.114899 -251.409841 1115.208530 153 129 147
-39.475858 -182.183063 1112.664032 40 33 70
84.148341 -252.896452 1110.211277 92 73 100
-406.669044 271.469879 1089.403915 63 48 79
-61.159766 154.238200 1078.063488 75 56 95
33.241403 80.966026 1077.401447 49 35 76
-59.098077 135.788882 1077.856922 50 38 60
-58.820158 150.628042 1075.901890 79 61 98
97.793496 -257.117152 1096.816635 91 68 90
-378.614163 250.254083 1080.856323 54 38 69
-375.987267 246.302724 1078.349495 66 48 85
111.432612 -152.731812 1073.713684 90 64 82
112.306106 -354.886842 1092.637730 87 63 93
-39.912480 136.082685 1057.867908 87 62 106
16.594534 114.212596 1054.418373 29 30 51
-377.588797 262.888217 1072.213840 108 85 113
116.915607 -359.242511 1088.262367 155 134 156
117.962658 -296.242738 1080.426788 150 124 137
-35.936034 144.630420 1051.480103 125 105 152
23.103760 -30.477375 1062.232018 45 39 92
23.103760 -30.477375 1062.232018 45 39 92
30.130613 63.042396 1052.531910 114 96 135
120.337296 -362.280536 1084.212208 103 69 93
121.723640 -388.834500 1086.481094 93 65 84
-366.863680 229.897404 1070.667744 42 26 57
123.192716 -358.935452 1082.084370 90 64 87
16.702533 98.410648 1047.281551 53 46 97
16.702533 98.410648 1047.281551 53 46 97
4.279357 113.328087 1046.732616 29 26 58
127.495563 -360.491824 1080.417252 85 62 84
124.370253 -152.569067 1059.151840 77 55 74
124.540079 -355.164909 1078.386688 96 67 90
25.232738 71.754354 1046.769238 122 102 144
26.717862 -4.450004 1053.642559 22 20 50
127.733374 -377.861309 1079.421043 98 66 90
28.268442 68.640965 1045.222378 65 50 82
129.412448 -122.249985 1053.813648 134 114 137
23.468627 -11.454479 1050.274754 29 26 72
128.137779 -150.652528 1052.871513 91 67 85
133.203745 -316.763949 1067.710209 88 70 87
129.610097 -120.733488 1049.290180 63 50 64
134.657955 -376.230645 1071.330261 199 167 178
134.973705 -357.672763 1068.444729 103 75 98
43.763727 58.141321 1037.998390 48 36 64
310.548973 161.998725 999.990273 120 97 142
-365.479422 260.926032 1058.549786 103 82 107
-365.479422 260.926032 1058.549786 103 82 107
138.253808 -284.486389 1056.944370 144 121 135
22.049293 -15.659381 1041.133785 26 25 59
142.349494 -166.174591 1042.129803 96 74 98
142.964542 -161.505651 1040.921593 90 69 91
146.799898 -358.660054 1058.864307 103 75 95
144.692862 -156.144631 1038.041306 109 85 97
147.315073 -201.809430 1039.700603 95 73 98
146.733832 -155.227184 1034.095287 88 60 83
146.624541 -152.623606 1033.155823 151 126 140
150.799108 -230.030298 1038.677883 145 126 141
-3.927479 148.237932 1019.280243 78 58 93
-3.927479 148.237932 1019.280243 78 58 93
153.854394 -238.898659 1037.580967 134 116 129
157.964611 -359.496117 1046.076202 100 71 87
159.467900 -265.618873 1035.975552 97 71 94
158.181262 -382.226849 1046.398449 126 91 111
160.370684 -370.506668 1044.057560 170 142 155
157.575357 -235.640335 1029.194450 140 117 132
157.575357 -235.640335 1029.194450 140 117 132
160.119426 -253.532982 1030.407715 102 70 95
161.835217 -284.222174 1032.699776 101 78 92
158.301973 -223.259139 1026.894569 155 129 143
165.577829 -384.655619 1040.705204 117 83 89
-340.084720 218.598962 1044.196892 60 37 75
168.703067 -364.543438 1035.048199 91 67 79
168.155611 -283.816695 1026.540565 100 71 97
168.155611 -283.816695 1026.540565 100 71 97
171.831524 -399.715877 1036.307526 104 78 96
172.658241 -224.004245 1017.394066 154 126 145
168.820536 31.827343 991.002846 96 71 91
172.690415 -158.096266 1007.636356 83 64 81
174.958694 -267.138934 1017.451286 88 64 88
168.290663 -273.464131 1018.867302 146 123 145
178.536975 -408.016920 1030.159569 103 77 95
174.960291 -284.237480 1018.412113 76 50 73
175.775421 -86.470670 999.274349 68 49 74
175.140536 -123.340297 1001.854515 72 54 67
170.113444 69.292003 984.145069 75 53 78
170.113444 69.292003 984.145069 75 53 78
180.466354 -380.586767 1024.929142 149 117 134
179.410243 -242.250633 1010.081196 92 67 87
183.070552 -268.287015 1010.295582 87 65 90
180.376387 -287.672925 1012.425613 146 127 142
184.516156 -268.662119 1009.916687 87 65 90
181.370032 -284.840655 1011.211300 86 57 82
183.497429 -239.903307 1002.878857 88 62 78
193.141127 -398.629427 1015.274715 91 64 90
192.835307 -327.497554 1007.123089 72 43 59
189.845300 -315.733933 1006.204605 102 79 101
190.731466 -268.670559 1001.380348 94 68 84
191.624749 -254.416990 999.632835 93 65 84
192.212498 -392.133904 1012.320232 97 62 82
192.212498 -392.133904 1012.320232 97 62 82
191.554797 -279.423571 1000.782681 98 71 87
188.860559 56.042075 968.372059 90 67 81
192.192113 -83.001095 980.230618 81 59 77
192.861080 -89.877665 980.513477 80 62 85
192.424345 -122.896922 983.353043 84 62 87
192.339265 25.042754 968.362904 123 105 128
188.344073 36.556545 967.331219 146 127 144
193.759441 -1.941615 968.400288 74 53 68
193.055773 88.399518 957.040119 60 48 70
196.444261 28.492033 962.044907 52 40 58
204.521871 -288.073707 988.895798 87 58 73
198.587799 26.051965 958.088970 122 103 124
203.731704 -8.154459 960.107803 69 56 78
198.116183 58.826584 954.506397 145 129 152
207.920814 -182.723594 974.522114 88 70 99
209.240079 -177.081525 973.032761 87 70 97
206.444001 -53.892142 961.088943 71 58 82
202.763748 28.561059 953.748417 79 57 81
215.365219 -433.694458 995.103741 102 76 90
209.081364 -200.771523 973.939419 142 117 131
214.877033 -120.691514 964.011765 138 118 137
214.245987 -427.403879 992.587090 151 127 139
214.476323 -329.535127 983.248997 100 71 87
223.414063 -434.675217 987.909222 105 73 97
220.722246 -365.992785 981.350422 101 68 89
215.505910 -170.553327 963.193226 98 76 101
216.073227 -91.935128 953.893280 81 59 87
221.002913 -50.702292 948.826504 147 126 141
227.969790 -294.661593 969.030666 142 123 138
231.667352 -435.710239 978.040981 102 70 87
231.667352 -435.710239 978.040981 102 70 87
-345.572376 290.499258 1005.324268 68 44 52
226.849627 -164.244711 951.822758 106 82 106
-300.764203 242.034125 1001.300240 80 56 88
225.639200 -25.963935 937.680626 145 131 149
228.728104 -288.092613 961.059380 94 70 82
228.728104 -288.092613 961.059380 94 70 82
230.963850 -282.070279 960.013676 101 73 96
234.278607 -439.147329 974.027729 145 123 141
-348.122287 288.990664 1002.729034 255 228 211
230.071259 -54.968190 936.334229 54 39 53
238.661170 -408.172846 967.810059 138 115 123
234.873056 -247.255397 953.180599 83 57 75
240.191603 -436.060333 969.266987 98 70 90
240.191603 -436.060333 969.266987 98 70 90
232.883286 -170.654035 945.309639 108 81 101
240.366578 -427.982712 967.774773 107 71 88
232.462382 -10.765509 929.579735 145 120 134
225.548005 87.009096 921.396351 145 126 145
225.548005 87.009096 921.396351 145 126 145
241.166401 -406.222963 964.607525 69 42 58
231.368136 40.861881 923.840523 80 58 82
243.258810 -433.631277 964.649677 157 128 144
237.846231 -128.458881 936.404037 102 80 104
242.472935 -247.451258 945.210266 75 48 68
242.472935 -247.451258 945.210266 75 48 68
235.072613 28.251973 920.028305 153 134 149
-290.526271 209.519434 995.250320 57 39 68
244.281292 -292.146897 946.553993 111 79 103
237.466407 83.877039 911.916351 98 76 100
236.772728 46.070224 914.146900 150 132 149
250.821519 47.628641 903.222370 156 137 156
254.243183 120.698571 890.154743 69 53 76
256.957889 151.575375 883.337307 143 128 149
268.060803 -89.776152 899.157429 134 111 133
-362.946558 286.790037 984.076214 202 147 120
-133.854866 -87.288666 957.162285 201 194 199
-250.469398 234.098148 950.963593 51 33 64
-243.173671 178.637266 950.597191 54 46 77
-241.505599 178.617597 949.845219 54 46 77
-261.701035 259.360027 946.394062 73 54 81
133.831906 -80.456054 886.419010 240 198 185
133.217955 -80.500829 880.868053 216 178 166
-242.980433 168.176842 943.842316 58 45 83
-241.975808 168.196869 943.378162 58 45 83
146.375132 99.145067 858.824730 248 208 189
-242.517853 251.777816 932.916069 175 137 167
-108.401740 -205.455279 944.102573 218 169 153
-108.401740 -205.455279 944.102573 218 169 153
-249.715900 255.974627 932.416248 73 59 95
-77.276438 -63.918108 921.646786 225 180 166
-77.411854 -56.470501 917.699242 202 165 151
-74.400634 -65.167469 917.463398 243 201 188
-106.995606 -260.786009 943.982792 237 192 181
-642.786932 91.892171 1037.384701 153 109 102
-73.765904 -48.200765 913.332558 248 204 187
-66.778237 -12.354290 908.023262 243 200 183
-69.992709 -54.392534 912.226391 159 120 112
-615.742016 -42.226502 1055.129814 179 147 158
-69.881356 -56.795043 908.786488 227 187 169
-61.112380 84.247893 891.378403 174 158 189
-67.834693 -49.086446 904.825306 249 202 188
-828.013706 43.749306 1124.247551 202 169 173
-58.994412 -35.122806 900.509834 119 96 111
-148.199022 -147.064769 934.405327 248 206 194
-148.199022 -147.064769 934.405327 248 206 194
-106.197381 -290.226364 938.789177 255 214 192
-50.013715 -16.982427 894.652176 133 94 96
-58.702058 -69.546765 898.153496 245 202 187
-54.920584 -141.171551 901.912689 181 129 112
-46.019703 -123.947668 896.289444 239 196 179
-34.452266 -30.159962 883.668137 102 68 55
-100.601304 -284.207225 926.963902 255 216 198
-350.489306 -97.889900 997.689342 228 182 171
-45.791137 -138.612998 894.360161 228 182 171
-88.069856 -276.175618 919.429207 234 195 181
-46.867830 -138.829947 893.766403 242 201 186
-84.103805 -282.386589 916.356564 187 135 123
-78.227735 -261.947799 910.491180 239 194 180
-848.751163 50.867265 1157.037640 106 75 78
-81.197560 -279.366875 911.940289 255 215 196
-64.259267 51.464534 876.821327 119 53 54
-21.487141 -22.716036 867.662334 99 68 71
-20.569739 -31.879139 868.202877 83 54 63
-16.247986 7.331030 862.481117 106 75 78
-34.891677 -56.673950 873.598576 245 201 184
-61.705697 49.447346 874.231243 254 197 176
-61.705697 49.447346 874.231243 254 197 176
-62.116206 52.961975 874.024296 254 196 177
-62.116206 52.961975 874.024296 254 196 177
-61.980706 47.313941 874.382687 255 206 190
-73.900545 -274.190211 904.548931 230 190 178
-29.666382 -141.119432 878.135204 243 200 191
-55.990940 43.563324 868.752670 202 168 155
-854.517555 51.878041 1156.862926 96 66 61
-27.030382 -146.662164 873.109436 130 88 81
-18.919918 -51.320261 858.267403 232 192 174
-59.225464 -272.597480 888.567638 243 199 186
-19.749932 -76.047713 854.509926 203 169 153
60.848135 88.745743 805.891323 224 187 173
-416.686392 27.878767 883.464336 174 120 113
-207.747817 -163.391042 816.786098 219 180 165
-445.721912 52.248573 892.705441 162 115 101
-448.818064 14.762406 1631.014252 137 108 111
-450.333548 9.927346 1630.753708 129 108 111
-449.317360 -10.551974 1633.530426 75 58 69
-449.609184 65.094358 1623.800659 68 58 70
-447.781038 11.447374 1629.880714 43 38 39
-447.156763 165.987206 1611.390877 68 58 71
-446.617937 228.092051 1604.420471 77 53 65
-446.563101 157.666397 1609.465218 97 75 94
-445.776272 -15.595482 1629.572487 52 44 55
-445.776272 -15.595482 1629.572487 52 44 55
-444.580889 138.225019 1611.638260 57 50 55
-443.064022 -11.286850 1625.139618 98 72 86
-440.220642 109.555876 1611.719322 80 59 68
-442.614269 237.591958 1595.996952 134 111 116
-440.809917 20.119075 1621.644402 63 47 58
-441.633368 18.359564 1621.072769 122 103 118
-440.587807 -13.798422 1624.162483 145 115 126
-439.740086 67.229390 1615.046120 151 120 127
-441.302681 -54.108286 1628.287125 133 109 119
-441.302681 -54.108286 1628.287125 133 109 119
-439.781809 -72.343385 1628.916359 81 57 67
-437.829733 259.531856 1589.182186 49 46 48
-437.193918 -59.738165 1623.725319 76 58 71
-437.193918 -59.738165 1623.725319 76 58 71
-435.949278 -53.388524 1622.967720 60 46 57
-435.935879 -36.606711 1620.619392 145 118 134
-434.697104 -14.507040 1617.922401 136 112 122
-435.098648 -0.649325 1614.738083 142 120 132
-432.943964 74.507153 1605.433464 95 70 90
-433.483505 -38.810331 1617.897606 126 104 122
-431.571436 288.794708 1580.859280 58 44 50
-432.497549 -40.567032 1617.520332 77 58 77
-431.096363 261.886024 1583.140182 128 106 118
-431.827497 -83.566964 1620.727348 81 64 75
-427.484369 16.126963 1606.996727 138 112 125
-425.360250 29.484618 1603.115845 73 59 71
-423.325539 134.083116 1591.373062 60 53 58
-423.720503 158.319175 1588.098621 125 96 105
-423.720503 158.319175 1588.098621 125 96 105
-424.279070 290.276504 1572.503090 51 49 61
-424.236107 52.902192 1599.116230 125 99 117
-423.445845 140.586090 1587.744045 127 104 109
-422.624302 201.414728 1581.001759 59 45 56
-424.593258 138.957644 1587.028790 111 90 105
-422.732592 216.906118 1578.770065 77 58 67
-423.603630 169.968367 1583.464336 110 73 89
-421.073341 41.774935 1596.377659 84 67 81
-419.693375 256.443787 1571.085072 73 59 70
-418.868160 161.920953 1579.586029 50 31 24
-414.002705 107.041848 1583.951569 130 111 126
-416.575527 -87.529296 1603.995895 130 100 111
-413.356972 15.920644 1592.879200 101 83 100
-413.765907 110.072565 1581.637669 124 109 130
-413.529062 -12.916413 1595.428848 103 78 88
-414.826775 -53.784114 1599.352455 129 102 118
-413.860607 222.232699 1568.427181 141 117 127
-413.379002 200.884271 1570.575905 117 100 103
-428.103828 160.596931 1571.353531 241 175 157
-412.946892 149.929571 1576.070213 253 184 167
-412.006712 -10.853869 1593.503189 140 120 132
-410.489321 30.095896 1588.277721 63 51 69
-409.540462 104.266155 1579.786205 74 56 69
-409.973526 -16.499303 1592.795467 148 124 136
-409.648943 -62.283599 1597.706985 124 94 105
-409.426880 -62.448072 1595.957184 130 109 117
-409.233475 252.526402 1560.233307 126 101 111
-407.783079 138.927603 1572.596931 116 102 120
-408.374166 -66.663468 1595.039749 54 37 46
-408.592749 221.031308 1562.700939 134 109 123
-407.223129 -90.992379 1596.335125 50 37 39
-407.223129 -90.992379 1596.335125 50 37 39
-405.980539 -6.504183 1586.874580 88 69 88
-404.885674 15.319994 1584.253979 69 50 65
-406.672430 -88.391477 1595.237160 132 107 121
-402.139473 102.008569 1573.372459 116 99 113
-404.313183 -19.511582 1586.094952 143 116 126
-401.926279 62.665242 1576.618195 65 43 55
-402.318621 44.310093 1577.853680 89 74 88
-403.595638 170.384634 1563.061714 110 62 61
-400.567102 59.733498 1575.996780 121 104 115
-398.976016 121.018767 1567.423058 41 33 44
-397.639465 61.462671 1572.754478 62 45 58
-398.871684 -1.477379 1578.053188 82 61 83
-398.614430 164.820433 1558.801651 123 104 121
-396.801233 70.539725 1569.585896 126 112 130
-396.801233 70.539725 1569.585896 126 112 130
-397.117138 -59.341598 1583.914948 55 43 49
-396.350741 193.821406 1555.339050 122 101 109
-396.693254 -1.139648 1576.431561 128 106 124
-395.903587 6.369725 1574.901104 121 100 109
-392.474747 31.071335 1571.746063 58 41 54
-394.566250 195.492995 1552.754498 46 38 45
-392.178440 58.274245 1567.820072 53 46 61
-391.364074 75.292814 1562.783813 91 72 91
-390.546799 50.851548 1564.702034 81 62 81
-388.649464 99.719447 1559.522820 78 61 82
-389.146423 233.288026 1543.581676 67 53 65
-388.080025 154.722369 1550.575256 40 36 55
-386.538458 10.894044 1566.196156 36 32 38
-384.318995 198.994112 1544.833755 120 98 110
-384.893608 88.407534 1555.407429 66 56 68
-383.115959 -61.774546 1572.425365 61 49 61
-383.115959 -61.774546 1572.425365 61 49 61
-382.078910 158.971334 1547.690201 127 104 112
-383.161902 92.427796 1554.611015 49 42 49
-383.007360 99.529463 1552.816296 44 42 54
-381.710243 98.199540 1551.317310 102 94 111
-381.756902 -67.015624 1569.359875 66 40 53
-378.761744 154.653263 1544.532585 110 93 102
-381.049705 220.488548 1535.892773 45 34 37
-379.196310 -90.651929 1570.096493 130 106 124
-379.395318 75.209373 1551.002407 40 33 46
-379.681730 -68.187749 1565.698433 126 100 116
-377.676272 -62.805295 1565.036297 51 38 46
-377.699518 16.453789 1555.662823 125 103 121
-376.315546 151.264608 1540.497971 105 85 97
-376.272488 100.247312 1545.693970 46 42 53
-376.488185 11.611354 1554.696560 48 40 47
-374.145484 -117.137098 1566.641045 127 108 123
-372.022128 156.810069 1536.712074 129 105 113
-373.236799 53.898889 1547.152996 113 94 109
-373.640847 -103.299201 1564.198589 128 103 117
-373.024321 -118.489230 1564.874840 61 44 55
-371.040201 100.260067 1541.256142 50 41 51
-370.815706 -44.460475 1556.030655 134 106 125
-369.718719 -44.904080 1556.101036 134 106 125
-370.779181 138.611519 1534.485435 98 90 107
-369.252181 125.209796 1535.952759 52 39 55
-365.680146 253.899264 1521.894073 43 37 42
-369.453239 83.225870 1539.009571 69 56 78
-366.856742 -36.072850 1550.818729 78 55 69
-366.650820 -32.226703 1550.078011 83 60 75
-366.650820 -32.226703 1550.078011 83 60 75
-364.685798 -94.816440 1555.457401 85 50 64
-364.286542 54.855031 1539.249229 57 47 59
-362.939239 8.548033 1544.576740 42 35 42
-362.666798 -65.330976 1551.349449 45 34 44
-363.163400 216.124940 1520.521832 53 37 54
-364.461446 84.206223 1534.386539 61 55 78
-362.079668 -63.172960 1550.323486 129 108 123
-363.820148 -72.678745 1550.886631 76 64 84
-363.366842 97.591227 1531.892204 30 28 34
-359.039164 -96.580207 1551.058292 53 37 54
-358.570719 -96.684408 1551.068020 53 37 54
-357.482338 123.167479 1525.479412 61 46 60
-356.714177 216.609812 1515.522480 44 37 44
-354.346371 54.800534 1532.603359 59 40 57
-356.308413 -70.115680 1544.372463 113 91 119
-360.390639 83.811462 1526.333714 103 87 105
-354.483819 -52.446556 1539.023018 83 62 87
-353.222322 94.998705 1522.458076 50 44 55
-351.815176 -89.591664 1542.328930 81 62 83
-355.762911 155.864489 1514.735126 116 97 114
-351.920629 33.315790 1528.758335 69 59 72
-351.498270 239.852619 1506.081104 93 80 104
-352.798223 191.077089 1510.386753 51 38 46
-346.713781 39.905208 1523.102951 50 36 47
-346.713781 39.905208 1523.102951 50 36 47
-344.853616 50.182945 1521.771812 49 39 52
-344.866824 -30.515248 1530.157566 36 28 38
-345.353222 -98.149788 1537.024879 52 36 53
-345.899844 0.998823 1526.089859 81 62 79
-347.009110 29.427680 1522.495747 62 47 61
-344.742322 -66.090512 1532.480145 62 37 51
-342.983651 147.105825 1509.175777 94 75 96
-344.519591 -12.909429 1525.853443 133 119 137
-343.455124 -99.769765 1535.362244 111 95 118
-343.995023 -12.998720 1525.850391 133 119 137
-343.734527 -0.716038 1524.578667 122 105 116
-345.249748 -115.376794 1536.023521 82 59 87
-344.619751 -29.615259 1525.969696 66 59 74
-340.748668 -30.230761 1525.900745 78 71 84
-341.253591 49.849704 1516.470242 49 39 55
-343.437862 296.345377 1488.607216 41 31 31
-343.437862 296.345377 1488.607216 41 31 31
-342.119884 -17.646365 1522.070789 129 113 131
-341.405630 144.822907 1503.996468 43 35 42
-338.258600 154.903269 1502.815342 35 29 34
-338.180614 51.954389 1513.672924 124 97 107
-342.237616 -26.641199 1521.196079 129 110 125
-338.388848 171.122444 1500.688648 48 46 52
-337.987471 -52.125168 1522.672367 74 62 90
-336.930919 -32.083672 1520.700645 48 37 53
-333.973336 86.457348 1504.797935 39 32 39
-332.300830 67.007732 1506.834030 37 33 45
-333.192992 -14.760469 1512.404633 82 66 90
-329.713798 -70.525998 1516.512680 121 102 123
-330.034256 167.688966 1490.418625 52 41 51
-327.485728 -69.351220 1515.513229 54 42 60
-326.413631 -147.131860 1523.076630 73 54 71
-328.148460 -117.725575 1519.391441 81 60 85
-328.933311 -6.053250 1507.210445 84 70 94
-327.075744 31.139046 1502.289963 134 115 134
-326.105356 -144.619083 1520.280838 117 98 125
-319.048047 3.982689 1498.352146 66 51 72
-318.331671 2.340325 1497.214794 134 120 138
-317.962956 -120.361412 1510.030460 73 56 69
-317.608428 151.922846 1480.818939 113 91 96
-315.713811 -63.781041 1502.427864 123 107 130
-314.320660 -51.641935 1498.365688 61 48 64
-313.771749 -57.502329 1499.030590 65 54 74
-314.604616 -104.407954 1503.805733 49 39 51
-312.180805 1.764814 1491.751671 55 44 70
-313.440037 -53.237587 1496.579742 118 103 130
-311.105418 21.760327 1489.000893 36 32 44
-306.096292 -32.056668 1487.051582 150 124 138
-302.946210 -117.206323 1494.841862 51 39 51
-302.358913 -30.380890 1482.783127 97 78 93
-299.312711 -52.015817 1481.757069 85 65 88
-294.171071 -145.637894 1491.057396 129 109 132
-294.328737 -34.317321 1478.925800 64 47 60
-290.546846 -160.049260 1488.385963 71 54 63
-290.150070 -139.928877 1484.959221 75 65 88
-290.970635 -31.410357 1472.508812 73 56 69
-291.278696 -127.527797 1482.319641 78 58 87
-289.099216 -104.665947 1480.184841 53 36 49
-289.214063 -143.281579 1483.386040 131 112 129
-289.810848 -7.995229 1468.967152 46 35 55
-287.417698 -85.854799 1475.750637 76 54 73
-287.417698 -85.854799 1475.750637 76 54 73
-286.071014 -36.081597 1469.741249 70 54 71
-287.519574 -157.720053 1482.137585 81 65 89
-285.107374 -103.129876 1476.702023 114 91 106
-281.734514 -140.801084 1475.690460 85 63 75
-277.740002 -169.723880 1475.609016 72 48 72
-275.389194 -141.018558 1469.687557 64 54 84
-338.408351 9.254764 1446.422577 94 77 120
-272.340107 -140.837920 1466.474247 45 31 55
-270.133305 -66.195256 1457.147121 74 62 82
-270.133305 -66.195256 1457.147121 74 62 82
-270.515466 -143.684435 1463.503170 135 120 141
-266.229129 -190.413070 1466.360378 69 43 59
-259.496188 -107.111514 1451.507473 67 48 65
-360.225415 157.355189 1410.355949 85 83 113
-255.265450 -110.060418 1446.409321 108 92 109
-362.778163 155.731916 1408.250523 89 81 128
-362.778163 155.731916 1408.250523 89 81 128
-251.208472 -194.603157 1450.116920 126 110 133
-327.826428 118.804407 1409.379101 44 40 76
-249.216866 -73.916984 1435.339260 72 53 70
-249.427414 -188.119924 1446.662045 141 117 135
-382.816410 297.109270 1384.762192 34 30 65
-375.441146 155.901062 1399.224377 136 115 148
-335.352278 135.273850 1401.154613 62 52 95
-335.352278 135.273850 1401.154613 62 52 95
-241.868448 -196.406806 1440.663910 126 110 134
-370.622635 198.086929 1388.051128 58 55 71
-375.022388 263.675523 1380.960941 87 73 115
