ply
            format ascii 1.0
            element vertex 14202
            property float x
            property float y
            property float z
            property uchar blue
            property uchar green
            property uchar red
            end_header
-691.802788 62.682939 993.141079 62 79 94
-379.152417 166.185236 1383.485413 33 28 46
-313.889289 -107.501292 1500.454617 68 50 59
-711.242390 28.992695 988.796711 32 30 64
-313.868880 -134.976375 1502.532005 74 61 79
-316.824889 89.308184 1470.638180 81 68 86
-316.824889 89.308184 1470.638180 81 68 86
-775.292063 -39.176223 891.662121 71 46 62
-751.522064 -57.654208 924.385738 149 129 148
-345.669198 123.627687 1423.343277 46 45 70
-378.974557 254.826736 1363.789177 30 26 43
-819.993591 35.785955 898.196793 65 53 102
-799.865294 5.580970 863.237667 74 58 79
-739.870453 -28.685531 933.921528 132 112 132
-307.808876 -120.021451 1496.487713 72 62 75
-771.104670 -17.877007 892.736149 64 56 77
-776.841497 -55.259132 889.338970 93 65 80
-361.716342 -10.090499 1413.717937 122 104 139
-576.305819 156.372297 1190.883255 114 96 136
-373.113441 169.806814 1376.188374 112 95 103
-3.663605 -247.142768 1956.320381 87 64 74
-752.363253 -7.882483 927.988625 63 50 104
-774.286079 86.474532 877.981377 106 85 116
-775.947666 -49.995735 887.054062 143 120 132
-783.135509 -37.777066 875.919819 85 63 77
-435.220051 -75.530720 1388.057709 57 40 47
-813.069057 -13.073425 840.734959 84 59 48
-296.134281 -153.410852 1492.704296 78 58 75
-733.964062 -21.286289 938.186550 101 84 136
-675.673676 86.535478 989.433479 129 112 139
-292.855477 -159.185004 1491.284466 67 45 57
-331.429696 74.336511 1414.521313 90 71 116
-717.033434 4.790780 946.308899 47 38 87
-717.033434 4.790780 946.308899 47 38 87
-291.515875 -157.085979 1487.891293 132 113 131
-356.198955 -157.400739 1443.666458 68 50 59
-364.265037 294.368052 1341.328239 100 84 123
-364.265037 294.368052 1341.328239 100 84 123
-748.150444 90.854383 913.239098 104 82 128
-290.854383 -95.039171 1478.011894 130 106 117
-780.634642 -4.220325 870.775890 150 131 148
357.180548 -156.713080 2286.261940 127 111 135
-327.316403 97.285300 1405.006790 92 78 134
-355.959892 159.886813 1360.451317 95 83 124
-358.768892 229.797411 1348.211384 61 55 94
-358.768892 229.797411 1348.211384 61 55 94
-744.301748 91.531855 913.831615 104 82 128
-283.269024 -178.008723 1482.623005 81 60 82
-470.464945 211.892343 1252.977276 53 43 68
-804.559803 7.104392 874.778175 50 40 71
-887.760162 11.732982 904.728603 66 50 66
-351.851845 220.732141 1340.309620 20 21 37
-280.218792 -47.150326 1456.988716 135 119 146
-280.218792 -47.150326 1456.988716 135 119 146
-348.028064 196.843970 1347.039127 63 60 84
-584.170818 68.451256 1250.903034 118 96 117
-347.276330 167.159712 1351.364136 91 82 125
-319.850540 121.092653 1389.373875 122 103 150
-318.637800 104.367816 1392.141342 125 107 158
-279.048705 -72.983479 1458.419704 56 44 67
-275.349402 -143.475044 1468.919373 65 51 77
-404.744244 303.071380 1262.300491 171 137 123
-275.151038 -108.579361 1462.766552 67 52 69
-343.965983 165.680730 1348.866653 46 34 60
-351.767254 295.099354 1324.015522 49 43 65
-667.551422 153.879964 972.298145 100 82 121
-777.934599 59.746706 966.998959 46 36 73
-998.569679 21.885668 784.934378 96 75 84
-998.569679 21.885668 784.934378 96 75 84
-435.028267 131.857204 1244.113255 115 96 142
-353.070760 297.138333 1318.725777 95 78 114
-584.702396 3.365017 1084.054852 37 31 56
-696.871710 25.010458 957.352734 39 30 71
-654.904461 142.848933 1147.711277 42 36 36
-269.143224 -194.713497 1472.916031 135 115 133
-369.480276 319.669580 1293.751240 56 44 67
-269.077945 -198.186576 1473.072910 127 106 129
-271.170545 -105.326962 1457.567787 136 113 128
-631.214094 153.626192 1021.546841 47 46 90
-367.049170 186.921215 1308.910942 89 82 132
-266.334057 -217.738008 1474.098969 88 66 85
-267.233992 -190.076494 1469.256306 139 122 148
-847.101212 23.120067 857.383537 84 61 86
-807.003498 46.527916 929.036808 48 34 70
-663.582230 143.593240 1064.069176 108 98 88
-663.582230 143.593240 1064.069176 108 98 88
-932.469654 34.055081 856.877422 58 45 50
-664.466095 8.386212 985.374832 42 36 67
-853.272152 32.051867 880.421066 91 71 114
-850.384808 12.318064 854.263020 61 46 96
-744.465733 -34.168720 932.675838 41 33 64
-339.219141 265.059733 1322.433472 20 20 27
-334.651923 157.719493 1339.103222 111 94 141
-733.580971 -29.086870 940.326595 25 24 45
-346.583343 327.161169 1303.899765 179 137 126
-258.804488 -195.661068 1461.837292 128 111 136
-258.804488 -195.661068 1461.837292 128 111 136
-259.069014 -109.538889 1449.396324 80 63 82
-330.859709 171.320379 1333.722591 101 86 136
-330.859709 171.320379 1333.722591 101 86 136
-329.606700 180.512500 1332.778645 48 38 70
-259.594154 -40.382028 1437.178135 139 117 126
-726.853037 135.575485 892.885590 253 244 241
-253.872991 -195.060313 1457.105637 73 58 79
-253.676629 -176.695442 1449.354553 74 62 90
-820.267868 -0.928340 844.325924 145 128 147
-324.337482 179.950941 1325.646687 41 35 66
-249.691057 -146.978855 1445.676041 79 63 85
-250.259042 -111.467648 1439.073467 50 41 62
-745.081329 -49.505758 898.211002 136 122 147
-285.819936 -26.715481 1385.384941 46 36 73
-285.819936 -26.715481 1385.384941 46 36 73
-709.509611 66.135138 911.717892 102 92 138
-276.353478 110.568309 1378.210735 28 22 52
-800.958061 5.760257 862.822914 106 77 96
-785.110903 15.166457 879.003239 99 78 104
-244.943643 -111.877191 1435.112000 51 44 60
-243.464851 -173.243487 1442.387867 89 71 86
-242.607522 -180.328226 1441.902351 137 117 139
-278.375387 77.925014 1370.679569 99 85 142
-241.157460 -178.300488 1441.371441 99 73 92
-943.287373 8.535344 836.061192 113 91 103
-173.608696 -243.868709 1525.123787 128 111 136
-801.984978 50.420731 880.223179 50 41 72
-274.141479 88.184911 1371.661568 35 28 68
-239.735174 -176.046848 1439.967155 143 119 134
-239.735174 -176.046848 1439.967155 143 119 134
-271.276140 24.690144 1381.137562 44 36 85
-276.946640 85.520452 1367.413139 84 77 131
-238.812685 -180.374897 1439.596558 84 69 101
-238.812685 -180.374897 1439.596558 84 69 101
-814.829540 45.010889 834.583759 228 190 174
-683.702183 56.458634 970.074272 48 46 91
-267.508078 -5.450796 1382.824039 52 44 91
-268.041658 -22.972099 1384.269905 46 36 73
-715.313196 -66.636086 915.386581 86 67 86
-266.896653 -27.911457 1383.730793 43 34 69
-308.488059 184.901476 1311.798573 42 38 74
-1089.295292 2.825154 684.915161 96 75 84
-685.442495 76.292384 953.023815 47 39 68
-416.182327 272.284150 1178.305721 54 49 80
-1111.779213 7.907327 658.943462 52 41 49
-276.091981 -72.517604 1382.116890 46 36 73
-255.241942 -47.553620 1375.531292 66 59 109
-694.908810 -59.735024 925.484657 106 85 106
-252.376485 -50.853819 1373.127174 66 61 109
-252.376485 -50.853819 1373.127174 66 61 109
-371.149015 -66.775751 1261.685181 70 63 101
-240.434694 -50.393677 1385.269737 66 59 109
-746.004343 -51.329303 872.411156 104 75 99
-744.106627 12.621479 882.094955 129 56 61
-1114.166069 -0.617734 652.569389 60 58 59
-743.837786 12.699121 882.158279 129 56 61
-217.018056 -240.081906 1426.265049 127 106 131
-461.773252 -118.330777 1163.755798 62 46 79
-1114.845943 20.691475 653.723812 123 94 104
-667.626238 -75.277328 950.307465 98 71 87
-292.157412 157.455015 1298.613739 104 91 140
-256.730556 -62.417978 1359.934807 40 38 79
-505.698347 -54.377192 1108.372688 101 85 136
-815.206337 9.213110 867.872334 32 32 44
-211.234355 -244.342875 1424.688530 65 48 59
-635.055208 22.652712 968.140602 62 52 98
-345.362449 153.840852 1238.026142 101 87 142
-368.197393 176.820910 1212.038898 67 56 81
-178.477526 -112.214458 1442.738819 25 24 62
-253.963757 -130.127788 1360.848808 49 37 66
-238.212371 -2.811376 1360.137558 37 30 56
-719.085169 12.498138 883.832741 74 52 70
-644.477320 -22.984433 998.286247 95 120 139
-248.635387 60.403943 1341.096973 80 73 127
-121.674383 -75.641900 1493.856716 46 36 73
-240.668845 -23.742847 1353.420544 32 25 57
-247.262526 -128.225350 1358.901405 37 31 60
-234.765005 11.098646 1354.110241 40 38 83
-717.670774 -31.948707 905.239391 96 71 92
-667.300987 -72.026670 952.578545 46 34 63
-850.948811 13.925987 831.097603 85 63 100
-244.482064 52.232540 1336.374950 89 78 130
-576.644993 -47.749639 1053.007412 67 59 101
-233.889723 -59.186375 1356.297112 74 65 114
-724.876261 -10.044937 886.885071 102 75 88
-230.354214 -81.728327 1356.438351 48 34 70
-712.352324 -27.180210 991.521835 46 37 80
-414.778137 265.668750 1135.553455 57 48 62
-669.080734 16.128276 937.009716 59 45 88
-226.966953 39.611322 1336.905289 52 44 96
-271.715951 172.137678 1277.218437 83 67 100
-1154.303360 9.349149 607.052422 77 62 67
-443.405437 130.703914 1116.995621 65 49 87
-224.113488 47.397324 1332.469845 54 45 95
-707.666492 80.950689 920.923138 34 20 63
-729.437256 -14.340577 881.458282 99 75 97
-745.091295 -25.630754 859.802437 242 201 184
-1093.996334 10.490040 676.196146 121 112 122
-753.437996 -14.210065 854.598713 202 164 151
-603.541613 171.841598 952.043724 102 82 116
-790.850115 45.468551 883.415127 67 50 84
-409.337902 234.194160 1121.383762 37 34 56
-582.338953 -12.224582 994.606304 109 92 143
-259.630847 169.484437 1262.686634 61 48 81
-221.119642 -178.912783 1339.479733 24 18 36
-687.782383 40.932518 891.322231 184 66 22
-585.750198 -14.830287 1040.978146 35 25 59
-233.186913 141.473961 1287.462139 35 33 49
-644.256926 98.596293 982.939911 140 147 160
-409.469175 236.758375 1114.584160 88 75 120
-206.684685 64.727753 1317.128468 33 27 56
-589.774275 -114.902806 994.852734 37 29 60
-753.066587 -48.512208 842.255974 116 76 53
-240.071487 144.356501 1272.315884 127 106 155
-252.312922 177.303803 1252.976704 62 48 94
-205.225468 -175.205505 1336.369324 19 16 31
-443.733501 258.519793 1072.321510 71 61 100
-228.248572 126.626742 1277.347565 119 104 161
132.563591 261.134076 1576.708317 65 47 90
-226.945305 -60.098064 1296.850586 27 25 57
-419.809818 164.393175 1096.787262 48 45 91
-421.518183 291.305733 1075.760174 46 40 62
-811.017513 11.503552 886.532784 68 58 84
-556.816292 -70.150399 1026.566124 83 74 115
-734.466934 -9.597696 860.754299 145 124 141
-413.648462 178.942478 1092.340660 73 65 111
-206.135774 16.242014 1289.558601 29 23 57
-795.174599 12.842846 894.643021 146 123 154
-411.625671 255.593252 1083.610249 142 118 162
-483.099651 -13.969129 1053.106976 100 78 109
-494.771385 -101.986313 1053.741741 116 95 142
-219.082928 -172.735631 1296.549511 106 88 136
-494.771385 -101.986313 1053.741741 116 95 142
-204.900289 -28.599131 1291.197491 101 78 111
-482.894564 -14.143510 1053.190899 100 78 109
-217.985725 -138.792813 1293.215847 46 38 78
-699.860954 -21.524252 956.510735 111 117 132
-203.475237 16.587311 1286.205101 84 73 128
-204.825163 -67.495221 1294.397449 102 85 129
-491.623449 -89.011765 1053.408432 108 89 140
-246.040392 193.582523 1226.740646 68 58 83
-493.589926 34.210423 1038.519573 39 30 63
-214.207959 -148.015225 1290.462685 45 38 82
-237.459373 31.877595 1257.984161 44 34 60
-493.685818 -104.535294 1050.331783 49 42 77
-216.714859 -177.961659 1291.759300 62 46 79
-200.372624 35.486716 1279.132080 36 28 56
-213.399076 -144.765699 1286.972618 110 94 146
-196.273196 12.604074 1278.830719 41 34 79
-878.300190 6.841084 842.299747 148 126 163
-878.300190 6.841084 842.299747 148 126 163
-208.873105 -169.132817 1289.149666 35 31 72
-197.076094 75.751054 1269.145584 113 101 155
-197.442245 93.432903 1266.563129 87 74 127
-197.442245 93.432903 1266.563129 87 74 127
-209.544110 -145.258558 1283.044338 110 93 146
-225.520229 152.074635 1233.594131 78 59 104
-569.284296 185.972703 945.639515 66 51 86
-208.926988 -174.502730 1286.343384 95 80 120
-211.076188 -140.759885 1280.402851 113 98 152
-211.076188 -140.759885 1280.402851 113 98 152
-398.951888 211.384964 1082.780647 54 42 89
-208.796835 -176.968944 1284.951687 44 33 69
-927.697754 14.312108 826.112938 64 57 75
-191.570067 49.560040 1269.434261 50 40 68
-191.415513 34.377545 1271.172428 39 32 59
-192.762601 100.493789 1261.879730 39 31 64
-1121.792603 13.089207 657.154894 55 45 57
-204.391241 -181.831157 1286.000824 109 93 141
-741.941118 -16.365156 859.143639 79 55 74
-191.754627 81.196034 1264.482117 36 28 59
-205.326295 -145.489419 1279.327679 115 98 149
-202.570653 -171.198499 1283.785725 46 33 66
-396.324229 214.907694 1079.025745 46 39 84
-406.579161 263.526130 1064.589787 47 38 70
-396.229768 223.469400 1077.559471 65 53 102
-525.058174 -48.274431 1022.880077 116 97 141
-208.097267 135.815060 1239.463234 52 45 82
-208.412766 135.818624 1239.210701 52 45 82
-208.097267 135.815060 1239.463234 52 45 82
-186.282468 -18.093732 1274.414349 85 73 127
-649.499178 33.902502 912.252808 103 89 140
-481.830549 -96.270859 1044.321632 110 90 139
-362.338686 -73.934788 1215.936375 40 32 65
541.508865 -359.994411 1892.420769 29 25 54
-199.095130 125.492251 1239.715767 73 60 113
-182.413185 37.365901 1262.719631 56 44 80
-748.837280 45.604080 818.858814 151 115 106
-794.043541 6.254973 904.694843 19 16 31
-214.247370 165.439630 1218.524361 78 62 95
-214.247370 165.439630 1218.524361 78 62 95
-196.953607 121.605790 1237.413120 118 102 156
-393.760991 255.982900 1063.741970 100 83 116
-212.311172 149.824846 1219.019699 66 50 86
-211.778808 166.947293 1217.044163 65 49 87
-192.047858 115.790188 1238.601017 119 103 156
-184.344172 110.385323 1244.668102 51 43 90
-184.344172 110.385323 1244.668102 51 43 90
-728.945255 9.001464 868.756771 61 48 92
-190.803707 -186.777103 1269.365597 97 79 122
-190.803707 -186.777103 1269.365597 97 79 122
-181.632411 96.713197 1241.966915 78 69 122
-169.885349 -84.425718 1269.937515 23 17 50
-178.552413 -189.312363 1275.218678 97 79 122
-178.552413 -189.312363 1275.218678 97 79 122
-186.386120 -183.732462 1267.741394 30 25 48
-164.990842 -77.090567 1271.503448 17 16 39
-749.751902 39.375490 852.349949 102 76 119
-175.940180 77.078545 1240.770245 36 46 75
-594.302845 -43.852335 935.214710 80 67 81
-178.067124 78.663361 1235.532379 71 87 112
-472.264385 -23.295116 1090.787983 50 40 68
-157.267582 62.451285 1252.094173 111 117 132
-646.020126 18.308526 913.028145 126 104 151
-155.445492 -112.694132 1271.588707 101 85 136
-167.941952 68.542451 1240.062428 140 147 160
-167.941952 68.542451 1240.062428 140 147 160
-165.234208 -17.363080 1252.102852 135 152 169
-377.541947 193.691242 1064.224911 48 36 68
-447.249031 -41.809666 1039.315605 92 79 130
-644.757462 7.149567 896.662521 137 122 144
-909.965134 29.444000 816.490650 61 46 78
-733.062935 30.470863 844.204903 79 61 79
-158.373857 -140.089202 1267.158508 97 82 135
-564.711237 -19.628735 983.689308 43 32 70
-155.006158 -101.325691 1261.330509 19 19 48
-160.607457 -3.596269 1245.382595 111 144 163
-1315.816975 -15.785702 498.000908 106 90 99
-167.664135 -222.095132 1264.857006 62 45 84
-313.473320 -177.485955 1150.437260 66 49 84
-166.650927 -222.346354 1265.323925 62 45 84
-312.777185 -177.650809 1150.714684 66 49 84
-520.086384 -97.857445 1068.290424 108 87 130
-160.196006 -8.697792 1242.191029 113 145 161
-297.920132 19.695607 1140.855503 48 46 91
-542.294836 -13.802838 1053.196526 85 71 114
-168.219244 61.335385 1226.576519 121 133 145
-152.660811 -141.026545 1262.181377 43 36 66
-156.570220 -38.822433 1247.059441 36 32 68
752.952385 24.008057 1938.418579 32 25 57
-659.194136 61.503524 871.817970 101 78 98
-153.910530 -20.952711 1245.775032 134 160 177
-690.133572 -48.903984 880.460453 90 68 90
-662.115955 11.566485 867.176723 146 125 146
-610.384989 -23.956364 966.420174 109 88 139
-254.255557 -103.322029 1178.920650 95 83 138
-189.428008 164.193547 1194.701672 68 53 101
-580.587912 22.918282 931.101704 51 35 73
-153.962314 -21.998221 1241.984081 149 175 186
-699.766254 17.627557 834.834385 112 77 55
-307.046390 161.231399 1106.014538 66 54 67
-170.703888 77.487224 1213.727570 82 93 106
-171.246779 71.485698 1213.480377 22 19 26
-744.845963 -23.882020 849.644089 98 78 108
-477.219629 188.139677 974.849319 55 38 89
-236.516619 25.658020 1195.652962 67 59 101
-175.759327 64.887071 1208.074951 101 125 142
-479.062700 180.075026 975.314331 61 45 76
-531.064701 58.182716 1026.233101 120 138 157
-167.105210 72.829241 1210.410309 52 67 79
-170.536995 46.247658 1210.374737 176 190 196
-143.207574 -111.439741 1247.962761 90 78 126
-815.826893 30.875257 851.889801 47 35 59
-143.356192 33.181518 1228.565407 65 89 119
-165.797925 72.257894 1207.275391 21 24 37
-132.316601 -78.899926 1249.265385 84 71 120
-364.184761 192.158186 1050.292015 43 35 77
-144.319475 -13.758226 1231.891727 171 194 204
-162.478089 75.007629 1205.844498 62 79 94
-140.369582 24.440950 1227.134895 56 93 118
-342.954588 -122.760940 1127.781868 58 43 79
-138.196898 -112.604249 1243.042469 27 25 55
-1368.241596 -61.663872 471.271420 65 49 55
-1176.737785 2.737440 643.511915 20 21 37
-455.742264 134.860885 987.024307 76 65 116
-174.481225 60.703701 1193.562412 146 153 159
-585.927582 -38.656315 934.375191 99 78 104
-143.142939 -9.038982 1223.875332 77 97 126
-45.479000 -254.599619 1321.340752 62 45 84
-149.335647 -223.183346 1244.236183 53 38 77
133.559430 80.889124 1444.456196 59 46 99
-127.917075 -73.062044 1240.268993 39 33 69
-525.644112 154.847372 932.809258 62 45 81
-525.644112 154.847372 932.809258 62 45 81
-171.195984 67.427152 1191.918182 108 134 147
-138.379323 -68.771714 1230.447483 96 112 130
-148.656631 83.740592 1204.389381 33 32 71
-136.994374 -74.716049 1229.570866 46 39 80
-30.859596 -60.298949 1301.957798 32 30 64
-643.068647 -21.783763 870.758438 101 76 102
-137.039876 -73.270983 1227.523518 119 127 149
-357.023954 220.062065 1039.226151 66 49 79
-357.023954 220.062065 1039.226151 66 49 79
-358.225775 235.990500 1036.208534 53 39 80
-666.273594 -16.680487 983.123970 52 44 96
-594.771338 -24.953942 971.210766 22 18 32
-685.047340 45.168483 856.955051 103 85 111
-139.919519 43.956110 1208.203697 152 150 157
-541.137266 78.369892 925.230598 71 56 99
234.707451 217.630744 1444.621372 78 59 104
-132.726240 -73.763394 1225.160694 98 104 126
-30.327684 25.087541 1297.401810 120 138 157
-153.571403 6.228811 1199.592400 146 148 161
-127.457976 -6.695173 1217.664146 176 199 211
-128.190374 -122.981834 1230.112934 95 83 138
-208.232403 174.519920 1139.700222 59 49 60
146.267986 1.174090 1457.447338 68 58 101
-130.099177 -0.414115 1211.539268 113 119 139
-1373.794460 55.341363 505.149078 84 69 101
-657.932949 67.133129 870.709038 100 73 119
-657.932949 67.133129 870.709038 100 73 119
-18.414357 -126.982963 1301.640701 90 78 126
-361.958599 258.569407 1020.718956 50 41 72
-859.780025 2.628290 832.630825 82 73 103
-428.617477 -161.584496 1027.145863 85 65 86
-460.889339 169.327903 964.153671 78 57 101
-1190.072441 35.665482 641.964626 62 50 110
-637.054253 21.244492 861.128998 201 164 151
-120.055854 -105.109966 1223.118496 33 30 61
-119.177377 -149.024892 1228.045177 50 39 70
-106.625187 22.676435 1219.348049 160 177 187
-368.243718 33.338192 1039.418888 119 101 152
-579.964924 79.120255 931.094170 46 36 76
762.762499 102.188051 1778.810120 39 30 57
-214.630628 -200.283718 1164.392471 69 51 90
-129.456472 -225.352383 1223.978233 66 49 84
246.000195 236.950946 1418.561363 78 62 95
-754.341650 -7.361890 902.657223 97 79 122
-128.116715 -73.273402 1200.434685 83 74 115
-130.898654 62.903923 1181.570911 186 201 208
-759.637690 -14.795394 843.383121 178 65 30
-129.049170 70.018893 1177.540398 160 167 173
-87.157768 72.719246 1203.547764 48 52 73
-682.776642 -23.095687 905.521774 37 29 60
-118.010628 93.077409 1180.659676 42 33 65
-109.073091 -90.117890 1207.901287 35 28 58
-668.661165 -83.332962 844.698143 229 186 170
-122.033012 76.677066 1178.841591 47 40 63
-619.373178 -17.575631 937.517357 121 101 144
-120.507932 -180.671430 1209.125233 35 31 59
-453.367472 181.546760 952.541161 81 59 95
-1430.451393 59.927291 472.115183 84 69 101
-106.977987 -114.535069 1208.409786 49 39 66
202.805495 70.850396 1385.235786 49 61 94
-869.350147 5.951051 839.123344 95 80 120
-472.234392 195.162237 932.742977 102 81 112
-460.320425 51.511812 957.791424 40 34 86
-101.921999 -4.390068 1190.066624 109 90 136
-100.044572 -35.478833 1190.456486 35 29 68
-337.393165 248.757458 1006.630611 104 82 128
-98.782706 5.920617 1181.902599 92 82 133
-343.749189 210.039234 1004.758263 55 38 89
15.583035 -263.022447 1281.907940 66 49 84
16.435342 -263.244557 1282.248306 66 49 84
-95.750660 4.796629 1178.793335 39 30 63
-138.665068 36.629018 1155.587196 39 30 63
-518.903971 130.051661 921.354294 50 40 71
-111.564565 -188.760793 1190.578270 66 43 97
-327.112937 204.646254 1010.594463 66 50 99
-327.668691 219.871998 1007.946110 55 38 89
-326.272297 213.893628 1007.780075 61 48 99
-105.305910 -167.749536 1187.430382 42 36 75
-93.579453 87.933171 1162.180710 102 89 143
-197.924161 -116.537976 1149.240971 32 31 60
-107.146180 -187.844360 1185.741711 49 42 77
-105.101883 -171.069586 1184.498215 116 97 141
-324.534464 233.889437 1002.252769 78 59 97
-416.403151 211.899471 947.255135 104 83 119
-1399.858952 -40.417293 436.268377 58 45 50
-87.197977 38.523683 1165.183544 53 41 72
-87.055361 22.985117 1167.063236 38 29 63
-549.460506 36.834359 899.681091 179 74 35
-86.097032 3.721052 1169.651127 38 29 65
-88.768345 88.383436 1157.802486 39 26 65
-86.715680 60.871381 1161.629772 76 58 98
-88.236439 -79.190099 1177.245045 113 96 140
-320.492697 202.037001 1004.521370 61 46 96
-49.227792 -205.267310 1214.422607 109 88 139
-86.951309 -35.805377 1171.353245 36 29 65
-400.351238 71.993226 977.113724 57 47 79
-98.468596 -150.106168 1175.916767 120 105 157
-83.023435 4.479579 1166.382027 96 85 135
-751.684666 50.317013 868.182945 110 91 137
-700.651503 -29.916877 856.936455 148 122 137
-887.229061 15.473624 800.269604 107 87 119
-473.723650 43.592897 926.444817 105 78 96
-143.458176 35.809574 1130.585480 37 31 62
-79.589099 4.377136 1162.312412 43 33 62
-81.186450 69.708323 1153.377438 37 31 62
-77.093077 -28.059933 1166.204643 42 31 63
-78.326637 26.308900 1158.565903 61 46 84
-78.615367 57.007265 1154.591751 73 54 91
-72.597474 -83.966970 1169.572544 103 89 145
-336.340451 -137.671351 1038.070869 103 79 98
-109.878135 138.862121 1117.447186 69 52 89
-321.815038 -143.536282 1046.618080 136 113 143
-438.571310 -83.468091 957.872868 91 66 83
-426.262951 -22.599381 1064.945030 37 30 60
-88.403362 -212.499905 1168.113518 38 33 71
-777.966118 10.391039 817.880440 159 134 143
-1018.447113 15.161595 753.517294 131 110 102
-517.678404 -46.023276 948.321819 88 76 127
-44.143054 27.680680 1158.612251 57 41 83
-45.835060 44.967940 1155.597782 39 32 65
-343.529177 275.427175 960.025597 80 44 42
-255.031729 -111.634219 1088.369846 48 35 76
-43.793976 42.869106 1154.295349 93 84 134
-448.141813 -34.382629 969.263077 76 66 116
-561.007881 172.643816 850.851345 168 142 133
-35.862234 -75.490063 1164.650154 50 38 68
-298.598695 184.422433 985.544586 60 46 83
-299.946046 232.084894 977.885246 81 59 95
-296.353722 187.736142 982.177830 59 44 77
-302.473450 244.581342 971.832180 110 89 121
-267.094779 306.444192 984.899330 83 47 60
-81.820714 -276.601815 1152.657413 36 33 69
-81.820714 -276.601815 1152.657413 36 33 69
-64.719003 -268.316221 1159.683895 73 63 110
-53.518540 -205.345678 1158.134270 57 40 79
3.287986 -215.670991 1189.825726 64 46 86
-25.930235 0.149712 1145.527935 64 44 86
-29.637232 18.146759 1141.335201 54 43 73
-660.350990 -29.030454 844.705582 119 99 122
-28.877035 88.308781 1132.911777 61 46 90
-81.355727 -273.768806 1147.647762 128 107 149
-916.163635 -1.801249 802.507401 77 98 123
-829.030228 9.343427 809.735298 66 47 81
-43.830058 -220.644212 1159.623909 43 36 71
-35.689944 33.848071 1133.716965 83 74 125
-30.117378 -96.925771 1153.207493 56 43 75
-22.844240 -25.968590 1147.374821 50 38 68
-600.820684 -25.022683 844.835091 96 93 116
-27.256230 65.650409 1133.938026 95 86 136
-453.562880 -114.099813 929.319954 82 53 75
-155.069995 -225.481462 1108.058357 138 118 150
-28.049061 16.158751 1138.408089 106 90 142
-1118.425083 12.383602 696.869898 27 21 42
-33.737510 -102.342010 1149.922562 103 85 125
-26.486933 83.616596 1130.849171 63 48 90
-25.059184 -86.921769 1151.548290 104 86 129
-24.290428 -93.446785 1152.393436 103 85 125
-23.603216 -104.181242 1153.927612 91 78 119
-24.073403 -82.406664 1150.718975 86 73 118
-23.535855 13.264495 1136.357117 62 52 98
-289.526534 185.154331 975.727463 62 50 99
-289.526534 185.154331 975.727463 62 50 99
-124.287248 278.192592 1050.876713 55 38 89
-551.367140 -83.106709 876.164818 133 106 124
-1391.423512 -76.987547 507.904530 81 68 86
-25.526971 -47.838166 1140.403461 31 28 57
-82.228506 148.607266 1086.756325 114 97 143
-184.722698 339.163280 1010.223293 58 39 44
-78.682017 130.319405 1089.199924 56 47 64
-80.627120 152.393591 1085.405159 45 36 58
2.813668 -250.768232 1175.437450 125 107 138
-286.859846 202.303720 970.499897 55 41 71
-287.378049 210.999250 969.130135 62 45 81
-32.346901 -181.123388 1145.673561 47 42 88
-77.439070 157.545972 1081.400204 47 40 68
-77.439070 157.545972 1081.400204 47 40 68
-372.622943 66.896623 945.798206 48 36 66
-96.550620 50.897855 1084.598255 60 47 96
-282.301354 118.353522 979.520607 119 102 152
-78.427684 -263.916922 1127.899075 32 32 44
-75.019854 150.660479 1079.690838 73 53 97
-22.298558 18.033034 1121.313286 111 93 149
-288.730025 243.157935 958.617306 102 81 112
-288.730025 243.157935 958.617306 102 81 112
-1166.986656 7.153933 624.079037 121 112 122
-281.691384 188.983035 966.679668 69 52 104
-582.351017 78.642404 852.588654 74 52 70
-263.747406 211.517835 972.981358 62 45 81
-42.326093 -267.084908 1140.818214 33 32 47
-703.836536 -28.540638 867.031860 156 129 144
-283.722854 209.161854 961.636066 76 57 92
-872.307873 3.010369 817.103291 51 63 85
-25.942236 -266.008329 1146.995926 136 113 143
-1456.215000 75.078732 443.632460 50 44 52
-22.005558 -153.628623 1133.548737 46 34 63
-40.625694 -277.459288 1138.775826 32 32 44
-76.037610 174.856400 1065.760136 86 73 112
-279.764175 227.607536 957.638741 72 55 106
-599.110603 -76.896709 844.073677 206 192 184
-1345.204926 34.427434 593.465185 27 26 64
-625.413275 -51.139164 871.311474 99 79 103
-2.400609 -8.311488 1120.219326 92 81 129
-1.895164 -8.355846 1120.349884 92 81 129
-289.794207 273.544526 942.826366 77 59 76
0.564464 -4.944846 1118.712139 42 34 62
49.754846 33.202744 1150.068665 40 28 62
-63.024527 152.438402 1067.533875 83 66 102
18.827097 350.759149 1083.418083 104 82 128
1.109903 41.054735 1110.056305 60 47 96
49.836332 -266.926575 1169.577599 114 98 109
5.153741 72.957540 1103.380775 42 33 69
3.703975 84.626818 1100.334358 59 45 88
-166.664314 -105.997241 1076.867199 47 38 87
-1380.984211 84.419924 437.091923 69 47 56
57.200301 -276.427698 1163.809013 85 65 86
10.779013 20.767675 1105.239010 44 35 71
-53.584474 132.236803 1060.721493 72 55 102
58.685464 -286.129475 1163.184547 84 61 86
-261.371708 -83.392328 986.691952 60 49 63
-1404.374981 -63.349056 444.819784 108 62 68
10.794500 -7.564628 1102.118111 88 76 127
60.888219 -162.036240 1139.897442 134 116 139
-1288.206387 15.961681 564.588356 85 72 74
65.072221 -297.584534 1157.404518 113 85 110
15.237427 7.603192 1094.397068 76 66 116
15.237427 7.603192 1094.397068 76 66 116
15.237427 7.603192 1094.397068 76 66 116
17.707622 76.816005 1087.273693 59 45 89
67.272633 -285.630727 1153.035164 109 83 111
-220.910454 -146.421182 1005.458450 94 77 87
54.822528 -171.303439 1131.090927 148 128 148
-720.128536 -1.636368 833.082390 149 124 142
-374.514294 -11.259482 940.285873 147 125 149
45.492494 -133.414185 1117.952251 126 104 130
78.700882 -313.803959 1149.948978 88 63 83
77.628082 -256.831026 1139.406109 82 67 95
-1275.595284 14.080861 560.451031 112 96 113
-252.282143 206.223893 933.830357 57 43 93
-230.042005 -76.804978 979.135799 90 72 88
-327.449989 -6.728002 939.186954 85 64 84
-780.134392 -3.179302 813.393974 74 51 63
-248.298717 204.457211 929.494190 61 48 100
-1209.661961 15.876953 597.626209 121 101 123
-593.986320 -57.443130 906.693649 154 130 159
-248.253536 209.393334 928.382874 116 101 147
-533.159399 23.783800 846.201038 205 166 156
-1263.299751 -4.933970 556.690931 122 102 114
-737.964964 26.731998 814.630795 96 75 88
94.285971 -312.947702 1134.783363 100 75 92
-25.509623 123.226321 1030.223083 68 59 82
-23.752883 146.259475 1027.930546 45 40 60
-22.715779 146.756864 1028.075027 45 40 60
85.816485 -111.977446 1103.750706 75 59 75
87.619650 -166.349638 1109.425068 100 78 107
87.619650 -166.349638 1109.425068 100 78 107
-232.568002 162.290633 934.080029 68 59 101
-20.507051 136.766410 1026.005650 103 89 140
-20.507051 136.766410 1026.005650 103 89 140
-20.507051 136.766410 1026.005650 103 89 140
-19.126472 121.634507 1027.625656 59 48 81
-19.332518 151.270032 1022.969627 50 40 71
-300.383615 -142.979455 943.992233 97 75 98
230.861378 -115.165794 1172.282314 78 62 91
230.861378 -115.165794 1172.282314 78 62 91
398.898911 206.758976 1189.723015 73 53 97
97.629130 -235.256052 1115.091896 95 76 94
-243.577790 237.945700 915.095711 102 80 116
16.007146 95.571339 1038.468647 39 34 90
-1448.384666 -42.380312 448.373699 113 95 104
13.683614 98.243606 1034.927845 133 117 164
-829.448128 19.070064 802.264595 71 56 70
-364.223385 -102.233231 908.004093 110 83 99
25.897312 88.508379 1038.971329 130 111 157
27.401710 70.914876 1041.204357 110 94 143
732.267141 335.584950 1306.132889 59 43 77
31.290090 63.636297 1043.381310 84 67 95
-679.052401 55.943084 853.793907 44 35 71
7.290260 111.759675 1027.608013 72 69 101
102.976179 -221.218324 1105.114079 92 76 106
-9.544226 120.845878 1018.566418 120 101 146
-1245.670700 -3.420207 571.455669 88 68 88
-315.528131 142.946196 895.136261 83 61 87
-1126.030922 16.606417 710.537529 26 21 37
98.776162 -77.613270 1083.764648 97 80 111
-5.802622 124.004662 1013.873005 38 33 54
-1331.790257 42.128232 490.303993 137 112 126
-5.848210 146.177244 1009.658051 80 65 99
-5.848210 146.177244 1009.658051 80 65 99
-571.920490 75.604069 811.414051 192 154 142
-1242.885208 14.519285 611.941385 65 53 69
104.173493 -97.770369 1080.878162 91 68 92
1002.999115 285.530186 1398.742867 78 66 94
-866.938972 24.813130 787.350798 153 132 152
-1485.066414 -32.039040 507.882738 52 44 91
-996.144676 20.767985 756.821728 79 60 86
-1203.166294 13.820076 681.189585 59 49 60
26.965892 -36.651745 1037.812614 127 108 156
-1223.047829 18.616195 611.379957 116 97 112
-1317.511559 -123.386300 523.569345 131 117 98
-1346.141052 -67.422110 513.925838 254 190 172
-840.584373 11.680079 789.145613 96 75 88
41.870561 68.475884 1029.112625 119 102 146
-993.320274 19.873704 757.547092 99 76 102
422.743130 179.191768 1159.944916 72 55 102
113.699901 -78.226167 1069.113445 92 72 104
-1035.244465 20.895660 744.353962 88 68 91
-950.849915 23.343277 768.821764 101 80 114
-1375.080776 45.600697 479.781628 143 113 123
-1383.904457 -64.911491 497.004986 121 98 105
-1325.200081 -21.772458 541.579342 104 91 115
-1452.864170 -122.722936 472.763109 52 41 51
-992.724895 20.307665 757.073689 90 71 91
127.209592 -195.489967 1077.453232 134 117 145
-753.460884 19.804679 797.208261 232 189 175
-350.434327 43.883315 885.593796 110 86 112
-1231.622505 11.128561 657.790184 45 38 82
-329.893804 149.551988 885.945415 98 80 99
-725.844288 42.290440 799.106836 199 164 151
-521.336079 62.858003 840.464497 114 92 116
-1409.279633 67.477876 477.443027 88 64 75
-1347.699547 -14.908735 504.766893 141 117 121
126.545370 -70.298743 1054.815578 90 66 90
65.492731 159.260094 1026.807690 61 54 106
-375.709343 -41.906074 896.352005 149 129 147
-1415.903664 -67.578524 490.172911 62 45 59
139.378774 -312.676477 1086.719513 101 77 99
-1009.009075 19.674973 752.400541 99 76 102
-1276.735783 -7.521718 580.346155 52 41 51
128.013730 -75.684953 1052.778816 139 113 130
-650.323772 58.526105 811.397171 101 76 104
-271.940351 18.742457 896.975613 86 63 89
135.791492 -149.480641 1061.823463 139 117 127
-1453.460884 78.951502 465.350485 75 53 65
-1431.118870 5.516513 478.400230 69 50 55
139.472878 -196.904469 1067.825508 71 56 70
50.200737 297.089458 987.190723 110 86 127
-539.794779 92.174602 803.068733 103 73 52
136.418343 -149.578178 1058.557892 91 66 83
300.512147 -26.655543 1121.893406 69 55 95
300.512147 -26.655543 1121.893406 69 55 95
776.936436 62.096405 1270.058823 88 76 127
-1117.733955 22.550751 717.221403 104 88 138
23.635004 249.982810 974.438572 53 40 74
-1034.298229 20.343533 744.727278 64 54 112
-1376.357460 2.933575 577.816486 60 44 87
-1294.473553 39.175701 529.822493 146 123 131
-1311.420822 8.650025 573.754120 115 99 117
-1417.433262 -27.579266 516.076946 112 95 117
-1180.878639 -9.250066 634.382963 46 66 37
-21.348171 235.923219 997.633457 81 59 95
130.849874 23.476964 1030.505753 65 49 76
-1335.183811 -60.901654 533.865261 63 53 56
-1458.944225 -37.111697 593.949413 48 44 90
-890.998173 8.491182 783.197975 155 130 144
25.825009 138.852215 976.966858 96 81 110
178.188288 -56.605977 1072.754860 144 121 135
-1378.425407 -35.208806 501.202536 87 61 72
156.519747 -318.881798 1071.720219 112 84 106
-955.064964 15.930861 765.761757 96 71 92
-1275.351620 -0.172618 574.187851 58 45 50
151.216006 -159.835172 1047.519112 90 72 88
151.150572 -197.545278 1051.846027 139 116 136
33.614972 153.471649 969.316959 89 78 118
152.773106 -227.963901 1055.309772 130 113 133
-255.409956 -94.304639 905.471802 98 77 103
-1383.679008 28.379697 496.040821 118 96 117
151.456344 -163.389730 1045.408916 136 122 147
143.883228 -24.942793 1025.102234 140 124 144
155.765855 -225.931716 1052.848339 98 73 98
-1306.161594 22.669327 538.912058 100 73 88
164.034903 -321.286416 1065.514946 86 58 76
-1266.507435 26.809371 569.404078 121 108 125
-1426.150227 -5.884496 489.662075 75 54 68
157.651258 -200.755596 1047.973919 91 72 99
157.651258 -200.755596 1047.973919 91 72 99
162.022650 -242.500710 1052.233028 138 119 137
-1345.193291 25.818655 513.475847 79 60 73
164.813495 -281.720018 1056.393433 95 76 99
-1417.807102 7.913852 533.105946 56 44 67
-1104.200363 24.982117 722.671413 148 123 150
-1457.145977 97.758353 468.593788 122 108 134
149.286795 -42.567369 1022.055054 129 108 122
-632.990694 25.018099 813.526344 229 193 177
-1104.363537 25.152886 722.616148 154 130 159
-1372.067356 13.540266 609.725952 46 35 66
-815.944958 1.020259 776.778984 130 86 58
148.969746 63.680488 1005.767155 105 78 96
-753.476191 28.783080 799.169731 96 75 88
-753.476191 28.783080 799.169731 96 75 88
-187.386370 161.498010 882.043648 91 74 98
241.771865 -174.410677 1073.250198 144 123 149
159.509802 -86.288291 1023.945522 80 63 76
151.738656 41.518164 1005.683517 100 76 96
-1334.351826 -19.677639 525.951767 58 30 23
-105.109644 -2.427634 938.141632 89 68 91
362.327600 283.955121 1065.616608 55 41 71
285.521126 277.111816 1047.317410 62 45 81
167.476726 -239.473772 1043.934250 73 56 74
-1298.644257 -14.644961 554.792595 46 37 46
-1094.045925 24.986663 726.515865 96 70 90
-1375.380421 29.069635 535.250711 62 46 60
144.741464 102.671695 993.572235 129 56 61
-1247.140026 -17.111313 689.492798 55 42 89
150.809991 93.981797 996.040344 50 40 53
-368.526554 91.499120 871.416759 143 125 142
169.216776 -248.421121 1040.677452 155 128 144
-339.192510 255.186987 815.472412 176 146 128
172.987390 -241.400862 1039.733219 85 71 90
-1464.171314 63.486427 526.565742 102 88 139
156.858420 58.507240 998.977661 137 122 144
177.942824 -300.829196 1044.820881 106 77 96
183.229291 -361.899304 1053.179836 146 122 127
-1425.922108 67.614269 488.701200 57 44 62
-1321.503448 84.548032 522.553730 52 41 56
-960.030746 15.206742 762.592268 86 58 76
165.879738 -5.036805 1000.750256 92 74 95
-1401.849937 34.535381 528.114033 68 50 59
-1354.885483 -11.209091 548.239183 75 53 65
183.537388 -241.410518 1028.358173 76 57 76
189.801669 -360.496926 1043.753242 90 64 81
-1310.876274 -5.599931 564.969444 70 48 65
160.426533 99.360257 978.861618 178 65 30
-1299.978828 27.613679 553.455687 85 57 70
160.481763 99.199730 978.880787 178 65 30
-1300.061512 27.663895 553.396511 85 57 70
184.399605 -233.794522 1025.159836 97 72 84
-1474.699402 72.966677 478.058910 73 65 89
165.413594 77.777386 981.968403 79 59 83
-380.426264 37.975386 818.726921 62 39 34
-523.239803 12.905672 841.963768 137 116 136
-466.112041 -46.653867 864.726639 139 122 142
189.196360 -266.585588 1028.722382 85 66 89
-1449.005890 47.732913 580.074787 111 94 140
-1410.014439 34.042904 599.328089 113 96 145
186.776507 -244.537377 1024.040508 136 117 136
-1350.663280 28.722277 530.745029 69 58 65
181.750333 -144.128978 1009.984303 99 73 90
187.412989 -236.830354 1022.047520 150 127 139
178.408670 -76.551259 1000.285149 90 68 90
-126.619077 -41.778022 922.450829 70 59 81
-623.263884 -21.621294 817.744732 115 95 123
-1213.630486 1.607806 619.119549 96 75 84
183.219385 -138.120544 1008.388424 94 70 87
-1281.659889 37.790057 552.249146 61 52 62
-1337.302017 -9.512654 546.252298 136 115 135
-1343.918324 80.632997 541.605377 66 55 71
195.445538 -284.162450 1023.038578 86 60 77
195.445538 -284.162450 1023.038578 86 60 77
-1362.916470 13.166460 572.534180 65 47 65
-1363.451672 -10.906710 545.837688 65 53 60
-1201.566219 23.853593 695.310259 83 65 98
-1325.596619 73.781806 535.712242 55 50 77
-1290.263653 -14.910962 554.917097 76 57 70
-1425.001526 29.998454 504.587030 75 53 65
183.340549 -5.335185 983.960533 80 64 91
-1376.463604 112.228501 512.205076 88 64 75
178.983772 46.075025 976.189232 139 123 150
-197.803795 -180.884922 924.423504 142 125 152
-833.745384 12.446235 779.735518 69 58 72
200.766134 -263.335061 1016.514969 152 124 139
205.332184 -321.261501 1024.391747 142 118 134
-1324.121761 40.449187 533.741426 73 56 74
-601.837683 -21.720986 807.650089 232 190 175
207.204723 -357.412744 1026.863384 100 70 88
187.842655 -6.186002 979.287720 64 51 75
-1371.871662 -7.478793 525.597429 59 52 60
205.253935 -281.661534 1015.638161 145 118 134
208.334756 -326.700807 1020.967293 74 51 63
205.171943 -278.647852 1012.805939 98 70 88
187.865281 24.012689 971.494293 135 116 138
187.865281 24.012689 971.494293 135 116 138
192.955124 -59.403443 982.686710 89 68 91
205.824757 -288.268209 1012.737179 139 119 142
195.424652 -80.565375 984.997177 94 70 84
185.359359 38.714883 967.645645 143 125 146
197.313142 -87.890476 985.829544 78 63 88
212.886381 -362.976074 1021.441841 91 61 80
212.886381 -362.976074 1021.441841 91 61 80
184.177434 129.608357 955.149555 70 55 74
183.836079 126.779747 954.628944 120 107 128
191.023219 0.469056 971.140766 74 54 76
-1276.435947 53.285229 562.542343 49 39 55
676.311779 -395.454955 1155.391216 71 57 74
189.831471 -2.218994 970.607567 122 103 119
182.784522 144.408405 949.958420 66 48 72
-1287.885189 24.666084 552.096987 64 50 61
192.839921 17.010787 966.424274 87 67 88
-1426.878834 36.272401 520.667171 134 116 137
205.555844 -201.252031 993.755245 87 75 92
210.925508 -197.180653 993.470097 142 125 152
-1326.981449 40.400928 548.837185 54 43 55
184.332955 -221.191955 1007.826900 71 46 62
184.332955 -221.191955 1007.826900 71 46 62
296.268058 12.150630 989.358234 133 114 135
158.533418 256.887150 921.411514 97 75 90
190.404892 157.637990 940.338326 69 57 72
224.348140 -363.173556 1010.742188 93 67 88
214.365005 -192.900765 987.410450 84 68 94
190.873837 181.260109 936.747932 83 61 87
214.393258 -160.409629 980.550003 92 70 92
-1247.597218 1.844514 681.767416 110 91 137
223.310566 -286.860490 995.847416 109 80 96
230.020952 -364.280987 1006.579018 97 70 88
218.866038 -166.483831 980.111599 90 72 96
217.934012 -198.569202 983.336163 141 117 134
-1363.245869 43.930683 532.064676 57 49 61
188.869154 221.155429 925.622749 130 109 129
-892.757988 22.807206 772.256374 134 114 133
195.763612 175.871658 931.702995 133 117 141
-1389.127254 61.050302 527.814817 48 36 46
196.787548 136.327457 936.320114 99 82 108
172.448909 258.533382 915.409470 96 75 88
-1365.887356 -16.838279 546.568823 62 47 62
200.108814 157.192612 933.117199 80 63 82
-1302.633667 32.001099 590.061235 139 117 141
220.200992 -171.954942 975.732422 99 76 104
220.200992 -171.954942 975.732422 99 76 104
-964.202404 13.936679 759.155941 153 132 152
231.778502 -287.720585 989.058113 76 50 64
234.655261 -166.400313 975.415993 137 117 139
222.099018 -168.289125 971.725082 93 72 97
202.515221 162.143600 927.146912 99 81 108
204.622650 155.914319 927.966022 76 59 79
-804.708576 -13.727969 781.679964 137 122 140
208.174467 89.178455 936.559010 77 57 77
-994.629002 19.420792 752.234077 72 60 79
-994.629002 19.420792 752.234077 72 60 79
-1367.800236 10.657046 568.379068 61 48 66
-720.535612 30.591798 791.669893 159 134 143
212.836909 22.708379 944.233704 148 130 151
223.915911 -123.560488 961.429214 79 61 84
224.308157 -51.130456 950.586128 55 42 62
-1198.670769 -16.426915 633.112144 46 66 37
-1131.054020 14.775117 726.786947 80 68 91
-1347.061825 -38.784257 551.125479 60 51 63
212.227631 127.066064 926.330948 90 64 88
227.801037 -43.325782 946.961021 135 117 139
222.865033 -15.159895 941.492462 153 135 150
234.306693 -162.086320 960.530949 102 80 104
231.088138 -122.755516 953.898335 78 59 77
226.194572 -19.581226 939.742565 106 83 109
217.542768 112.468612 921.181965 94 76 106
-1299.340630 44.192919 573.445463 69 58 65
218.486786 97.605968 922.351456 87 72 101
238.291001 -204.473805 961.904526 90 70 82
238.291001 -204.473805 961.904526 90 70 82
226.601696 38.986319 929.910564 153 134 152
228.913260 -26.196185 938.011646 90 71 92
219.507718 88.714838 921.225834 143 129 143
-1301.115227 17.493740 586.660385 46 35 48
198.701489 7.560567 927.191544 57 43 60
227.342629 42.755359 925.490284 88 68 91
228.105021 36.887583 926.302338 86 63 89
254.584670 -362.082720 979.366684 103 73 98
251.657200 -289.187479 968.943501 81 59 76
225.678802 56.914264 921.988773 142 124 149
102.893674 274.689007 866.702080 155 137 126
102.893674 274.689007 866.702080 155 137 126
241.556668 -125.815773 944.070816 98 77 103
227.782416 30.855611 922.088814 145 124 141
257.299376 -366.094971 975.547314 108 81 97
219.780374 226.075149 896.880150 69 58 72
227.945495 124.543297 909.499073 96 77 102
-315.161276 53.513271 802.723122 91 65 52
-860.844040 -10.248827 773.846388 86 76 100
-1416.902637 119.637060 531.059599 68 50 59
261.133170 -330.985975 965.946674 111 80 100
225.231481 223.386049 891.759491 87 65 83
224.293399 227.850389 889.739037 142 122 135
-1264.433098 11.488348 587.631845 93 60 71
-1317.514992 -82.341117 574.416018 63 53 56
-712.982416 -26.590380 776.206255 184 131 122
234.925628 220.817590 883.710003 84 70 93
267.514420 -247.546530 940.227985 104 75 99
242.486525 121.980095 890.355778 67 54 75
-1310.748863 -9.703737 587.357330 66 55 71
-1251.483727 24.309704 598.299122 108 62 68
243.322563 220.091224 871.321869 65 48 69
-1479.209137 72.997916 613.064289 59 55 83
-61.421806 -79.903775 869.874287 121 98 121
-1275.783539 33.378702 610.499096 95 82 98
286.358905 -334.114909 943.222713 103 66 77
-1251.450729 24.124381 598.652697 108 62 68
-170.193326 -165.081263 862.189484 214 174 163
-39.965233 -209.638190 880.423737 232 189 175
137.437677 245.018959 839.792919 255 199 183
223.064446 264.679790 855.100632 255 196 177
-1269.367790 30.297938 665.798140 148 126 163
-331.320214 -2.003842 785.566807 172 124 116
-1240.580559 17.356393 626.353788 109 92 108
-1276.858139 23.808517 622.106695 111 96 139
-1387.220764 25.506327 628.117943 146 123 154
-1207.705879 -5.364337 664.810944 135 121 105
-1296.407604 18.195571 613.191080 111 96 139
69.782466 -52.585399 874.969673 202 164 151
139.653850 -61.462438 883.880234 234 193 176
-257.697701 -158.499730 833.026409 172 130 123
-1287.446308 -12.964742 591.345406 129 106 121
234.663463 -106.939340 897.760010 199 164 151
-1056.333923 15.025669 741.294479 85 63 100
-1507.023239 67.871135 543.775225 72 61 104
-1276.291561 24.975041 621.717548 35 32 38
-1353.588486 67.295760 572.301579 77 59 78
-63.084227 -171.799874 851.182270 172 130 123
-1254.070473 -26.836398 599.336576 128 107 111
-508.217573 -30.232549 808.726311 232 189 175
-1353.334332 67.338234 572.475338 77 59 78
-1404.435062 -31.355920 566.308069 111 96 139
198.143888 -91.723520 893.720341 198 165 152
-1278.951645 27.129453 614.643288 50 38 54
-103.793454 -172.214746 847.567844 172 130 123
-1296.043205 21.652804 606.395435 50 38 54
-28.583315 -168.749321 853.715229 172 130 123
-1517.890072 41.068405 542.984390 96 83 137
-690.736818 -6.932626 785.869026 232 189 175
-776.221514 -9.694543 764.152575 169 122 116
-1363.050556 -9.584352 575.517607 50 38 54
-235.469341 -67.266357 824.860668 172 130 123
-161.886179 18.445024 805.220413 73 47 32
-1377.092266 -20.232217 569.693279 50 38 54
-1228.102493 35.047698 614.181280 108 62 68
-1382.295513 -25.080961 567.620850 50 38 54
-1270.954895 -53.346777 593.939400 104 96 105
-1504.625797 -78.681195 608.299208 31 32 55
-1386.569500 -29.896152 566.076756 50 38 54
-1419.584274 -79.781848 583.890104 137 108 100
-518.858242 -20.107569 794.701672 172 130 123
-520.786095 -19.865936 794.433975 172 130 123
-1285.984325 -40.313858 587.210512 47 28 20
-1378.225708 -20.377028 575.998068 110 95 145
-1292.394257 -42.989707 587.481117 53 34 24
-1551.084900 25.532061 608.628130 77 60 103
259.826183 160.770392 862.469482 170 157 179
-1339.705372 -32.214701 580.657816 44 35 45
-1273.050022 1.372104 700.797844 55 41 71
-1395.997524 47.718960 602.615976 93 74 115
-238.716960 -162.817299 832.073784 172 130 123
-1256.530952 33.192319 626.720572 50 38 54
-1275.465107 27.899441 617.608023 50 38 54
-89.142793 -177.917993 846.124554 172 130 123
-1277.534962 27.268043 616.631651 50 38 54
-74.689466 -178.633308 847.360516 172 130 123
-1246.814823 27.289939 712.163448 130 115 140
-1204.095078 5.313960 692.473507 31 32 55
-1283.840561 25.275743 613.675833 50 38 54
-1285.825062 24.628788 612.743044 50 38 54
-25.227234 -179.219460 851.331520 172 130 123
-1292.186737 22.496152 609.725285 50 38 54
2.089086 -177.146447 853.352642 172 130 123
-1294.277573 21.760589 608.769512 50 38 54
10.438167 -176.233625 853.853416 172 130 123
-400.762033 12.054027 790.244675 201 159 145
-1454.761505 76.867306 611.855030 101 125 142
-1235.392380 38.279173 613.357782 254 190 172
-1276.231861 97.809750 572.971010 146 125 144
-1235.392380 38.279173 613.357782 254 190 172
-1360.267639 -9.986016 578.889656 50 38 54
-218.482184 -69.158423 823.454475 172 130 123
-1398.317432 61.821944 553.829145 78 61 75
-1358.647919 -8.947092 579.640913 50 38 54
-197.254264 -73.271936 825.573730 172 130 123
-936.336803 5.304569 757.695866 118 78 98
-204.665828 26.131597 832.580471 237 196 181
-1395.348454 47.754028 603.648949 93 74 115
-942.241955 12.988514 756.604195 96 77 102
-1538.935375 75.986135 585.376358 122 132 140
-1299.099541 49.134219 591.938782 116 97 116
-1538.935375 75.986135 585.376358 122 132 140
-1373.551178 -20.508577 573.475218 50 38 54
-417.477608 -35.532245 803.022289 172 130 123
-1377.234173 -24.122633 572.077131 50 38 54
-509.496260 -22.249591 793.815708 172 130 123
-1378.308201 -25.240770 571.666861 50 38 54
-529.425621 -19.513373 791.837263 172 130 123
-865.743732 9.816815 764.713860 133 106 124
-1276.222420 87.357575 573.971748 146 125 144
-1311.734581 31.545129 606.696033 120 108 147
-1381.481266 -28.864375 570.503712 50 38 54
-589.133739 -11.602650 785.925531 172 130 123
-1382.359409 -30.016273 570.217562 50 38 54
-606.800604 -9.352708 784.170198 172 130 123
-1321.403790 28.641719 602.385235 120 108 147
-1415.051270 22.586288 622.371292 146 123 154
-1384.996128 28.400964 595.361042 119 98 144
-247.712851 -162.396181 829.755306 172 130 123
237.862682 261.495852 838.949966 255 199 183
-1257.885551 32.762858 626.703072 50 38 54
-1259.255123 43.898919 584.467888 128 104 111
-109.742618 -181.006694 843.816853 171 131 123
-1257.133007 54.795611 589.623022 146 125 144
-1403.458405 71.894467 560.056162 128 110 133
-161.146820 -173.906267 837.787247 172 130 123
-1276.891804 27.280664 617.737532 50 38 54
-206.838274 -149.161386 813.736820 178 127 121
-1524.137020 -26.422977 559.325790 139 118 161
-1274.816704 27.917156 618.731070 50 38 54
-68.644273 -182.226336 846.121311 172 130 123
-1408.485317 -15.565994 565.735435 120 108 147
-1283.022308 25.317875 614.887190 50 38 54
-13.716000 -183.891952 850.592327 172 130 123
